# .PCD v0.7 - Point Cloud Data file format
VERSION 0.7
FIELDS x y z
SIZE 4 4 4
TYPE F F F
COUNT 1 1 1
WIDTH 1271
HEIGHT 1
VIEWPOINT 0 0 0 1 0 0 0
POINTS 1271
DATA ascii
-0.030913975 -0.00097732141 0.051072173
-0.02989549 -0.00024148976 0.051518615
0.03366917 -0.00015536086 0.051874921
0.035175271 -0.00093438354 0.051117294
0.036994774 -0.0011281525 0.050993711
0.038300667 -0.0017818343 0.050119035
-0.032132991 0.00033603821 0.050152261
-0.031083329 0.00098087965 0.050975874
-0.029533038 0.0011061671 0.051171154
0.024347115 0.0019057619 0.051980924
0.031821765 0.0017985891 0.051813509
0.033073787 0.0010862929 0.051554661
0.035030134 0.0010633506 0.05100733
0.036550872 0.0010218564 0.050633132
-0.030507609 0.002813186 0.050955754
-0.028923403 0.0029115349 0.051129371
-0.027854003 0.0037654198 0.051746063
0.021876773 0.0037642661 0.051814556
0.023033023 0.003231995 0.051569689
0.024881825 0.0030564461 0.05161247
0.026896983 0.0035290951 0.051720787
0.028953765 0.0034704967 0.051673029
0.030949872 0.0030246768 0.051427756
0.033006761 0.0030822016 0.050901067
0.034862261 0.0029817726 0.050891221
0.036091931 0.0022483838 0.050306093
-0.030147845 0.00424877 0.050288588
-0.029005675 0.0050386041 0.051023126
-0.027345611 0.0050569139 0.051137645
-0.025894606 0.005975367 0.051801167
0.021299515 0.0052788081 0.051297169
0.02304941 0.0051454091 0.050749246
0.024877338 0.0050978661 0.050981969
0.026901886 0.0050726389 0.051008608
0.028980808 0.0050746179 0.050955705
0.030986857 0.0048846034 0.051061593
0.032899007 0.0049689752 0.050846595
0.034179058 0.004324377 0.050568976
-0.028546881 0.0065435669 0.050627399
-0.027019376 0.007062417 0.051177152
-0.025178671 0.0071038632 0.051213548
-0.023441609 0.0077297064 0.051727593
-0.014383432 0.0079222023 0.051794
-0.013211221 0.0079157865 0.051824696
0.01954243 0.0075142835 0.051472276
0.020779299 0.0068496582 0.050959948
0.02296743 0.0069550821 0.051158
0.025005985 0.0069446824 0.050963178
0.026896698 0.0068562133 0.051174734
0.028910378 0.0070263292 0.050869688
0.030893864 0.0066170837 0.050672419
0.032366734 0.0062861936 0.050217129
-0.026581436 0.0086022113 0.050639216
-0.025075963 0.009036839 0.051021423
-0.022915304 0.0089833047 0.051096227
-0.021154361 0.009126761 0.051145479
-0.01893368 0.0093225176 0.051345266
-0.016947122 0.0092417793 0.051375885
-0.015103531 0.0091331601 0.051088884
-0.012947788 0.0091001252 0.050935563
-0.011337832 0.0094471639 0.051502515
0.0036247186 0.0097214505 0.051884264
0.0046234322 0.0097778579 0.051720932
0.015971893 0.0098371543 0.051928416
0.017256461 0.0095292618 0.051411349
0.018989159 0.0089717712 0.051076155
0.020877032 0.008895806 0.050893147
0.022904539 0.0083437273 0.050295275
0.025012184 0.0084302854 0.050268888
0.026769836 0.0083967969 0.050268311
0.028718915 0.0081531331 0.050147563
-0.024511885 0.010298423 0.05030787
-0.02290222 0.010632245 0.050824519
-0.020958798 0.010992896 0.050926719
-0.018938243 0.010948028 0.050958406
-0.017104734 0.011031043 0.050978754
-0.014892763 0.010901817 0.050971881
-0.012921376 0.011120943 0.050955396
-0.011012012 0.011022884 0.051028851
-0.0091359606 0.011211684 0.051107626
-0.0071534314 0.011599304 0.051535774
-0.0051352377 0.011847704 0.051712025
-0.0033168735 0.011895269 0.051786304
-0.0010601252 0.01184698 0.051600792
0.0010182119 0.011448514 0.051437289
0.0030511308 0.011063116 0.050933853
0.0050267973 0.011012071 0.050948288
0.006939142 0.011259013 0.050970785
0.0089619691 0.011519412 0.051089473
0.010876714 0.011456111 0.051241159
0.013052055 0.011322037 0.05108716
0.014988489 0.011054443 0.051081363
0.017083481 0.010900483 0.050927699
0.018991567 0.010675639 0.050849009
0.02008733 0.010156657 0.050305862
-0.020251254 0.012006736 0.05006744
-0.01862793 0.012177993 0.050136842
-0.0169972 0.01221557 0.050200477
-0.015274737 0.012177296 0.05014712
-0.012470432 0.012078006 0.050120398
-0.010743986 0.012525533 0.050687145
-0.0088253217 0.013078135 0.050953977
-0.0070719868 0.013148805 0.050922781
-0.0049007386 0.01301847 0.051036276
-0.0030504582 0.012949876 0.051054217
-0.0010809358 0.012990454 0.050890949
0.0010904827 0.013117413 0.050897755
0.0028532483 0.012881842 0.051022258
0.0049846666 0.012745709 0.050818436
0.0070414543 0.012932957 0.051051609
0.0090351524 0.013106762 0.050854348
0.011072947 0.01294928 0.050939012
0.012920238 0.012967718 0.050956324
0.014977225 0.012640796 0.050887447
0.016822703 0.012294254 0.05035745
-0.0067012538 0.014128944 0.050296441
-0.004973663 0.01423535 0.050496113
-0.0029110606 0.014300996 0.050520681
-0.0010291067 0.014291704 0.050364569
0.00080346985 0.014132934 0.050189994
-0.040843744 -0.026865138 0.052229118
-0.038945124 -0.026878126 0.052497543
-0.037070028 -0.027040917 0.052513026
-0.034827568 -0.027160883 0.052845266
-0.033040121 -0.027117122 0.053123046
0.0379279 -0.026724616 0.053900581
0.038946457 -0.027077105 0.053108443
0.040356029 -0.02705205 0.052844465
-0.040766489 -0.025091797 0.052258506
-0.038974252 -0.025001407 0.052549213
-0.037084881 -0.024814498 0.052564785
-0.034934174 -0.025101397 0.053023573
-0.03277804 -0.025013182 0.05307759
0.037887342 -0.024762042 0.053907417
0.039022766 -0.02496128 0.053131387
0.040422231 -0.025220873 0.052761454
-0.040841296 -0.023039319 0.052195117
-0.038996864 -0.023067413 0.052502695
-0.036944248 -0.02291166 0.05252564
-0.034997918 -0.023077549 0.052944716
-0.032819517 -0.02296173 0.053040151
0.037854288 -0.022678306 0.053856868
0.03902784 -0.022983536 0.053214945
0.040399197 -0.023150681 0.052712608
-0.04058947 -0.021079266 0.052191932
-0.039082758 -0.020930301 0.052423157
-0.036922224 -0.021066485 0.052458286
-0.035011988 -0.020949522 0.05283881
-0.032794967 -0.020994475 0.053070001
0.037839394 -0.021337008 0.053773861
0.038961757 -0.020944322 0.053065136
0.040361043 -0.020894298 0.052624799
-0.040400472 -0.019138345 0.052129034
-0.039013535 -0.018903859 0.05232361
-0.036954172 -0.019027261 0.052376393
-0.034893584 -0.019044764 0.052774709
-0.032797653 -0.01890892 0.053174831
-0.031966828 -0.018521396 0.053876489
0.037729971 -0.018912509 0.053683195
0.038910374 -0.018980395 0.052994758
0.040261436 -0.019081784 0.052602731
-0.040137477 -0.01704796 0.052048832
-0.038875122 -0.01707446 0.052219022
-0.036937706 -0.016979594 0.052249797
-0.03485902 -0.017023267 0.052647538
-0.032668393 -0.01704732 0.05297263
-0.031936347 -0.016853694 0.053665429
0.03756905 -0.016976351 0.053607892
0.039087411 -0.016957723 0.05301515
0.04023397 -0.017077358 0.052376293
-0.038629435 -0.015008929 0.052074473
-0.037062969 -0.014949731 0.052101854
-0.034932692 -0.015089291 0.052403286
-0.033192597 -0.014894482 0.053098768
-0.031849436 -0.014857263 0.053459998
0.037463747 -0.014944769 0.053423818
0.038982693 -0.014936846 0.052904047
0.04013744 -0.015309826 0.052221552
-0.038061485 -0.013881171 0.052000433
-0.037259266 -0.013867363 0.05202397
-0.034733281 -0.013177826 0.052232672
-0.033163011 -0.01288373 0.053092826
-0.031753689 -0.012940382 0.053225599
0.03737995 -0.0129032 0.053128757
0.03904774 -0.013100523 0.052949287
0.040081672 -0.013806782 0.052005149
-0.034239065 -0.011078153 0.052149888
-0.033182915 -0.010884159 0.053118441
-0.031650148 -0.010960132 0.0528519
0.03705449 -0.0109467 0.053043094
0.038940068 -0.01105613 0.052932099
-0.033038691 -0.0089699775 0.052922297
-0.031365857 -0.0090281293 0.052924406
0.035646431 -0.0088835862 0.053758007
0.037041638 -0.0088829156 0.053046759
0.038641714 -0.0090187518 0.052810442
-0.032632641 -0.0069944626 0.052891064
-0.031015882 -0.0069456538 0.052943282
0.033989787 -0.0060327984 0.05399593
0.035181526 -0.0069963858 0.053553123
0.037030682 -0.0069420696 0.052901007
0.038384736 -0.0070857536 0.052506812
-0.032288492 -0.0049945866 0.052617546
-0.030938929 -0.0048840553 0.053159527
0.025214298 -0.0042694141 0.053962398
0.033558697 -0.0046451264 0.053771809
0.035095919 -0.0050576651 0.053053342
0.037002213 -0.0050802901 0.053002771
0.03822767 -0.005708572 0.052199066
-0.03214037 -0.003660714 0.052202575
-0.031047748 -0.0031170759 0.052954327
-0.029732322 -0.002748 0.053530641
0.023693044 -0.0027756954 0.053797897
0.02511177 -0.0029758227 0.053656798
0.026967395 -0.0024826401 0.053871896
0.02899381 -0.0020717853 0.053960964
0.031382423 -0.0024301114 0.053803712
0.033028748 -0.0029899688 0.053429015
0.035021137 -0.0030391612 0.052869242
0.036883 -0.0031777716 0.052585844
-0.030958071 -0.0010273085 0.052942794
-0.029339915 -0.0010158099 0.053113747
0.023091938 -0.0007986718 0.053412318
0.024965115 -0.00098842604 0.053082556
0.026940566 -0.0010548234 0.053467397
0.029007744 -0.0010220059 0.053620271
0.030982425 -0.0010287798 0.053370036
0.033082068 -0.00093438191 0.052832458
0.034892593 -0.00099564379 0.053016875
0.03636276 -0.0014241583 0.052284691
-0.030410614 0.0008372998 0.052851632
-0.028859392 0.0010205217 0.053061817
-0.027694589 0.0015414613 0.053660423
0.02175227 0.0012786378 0.053514589
0.022977972 0.00091590238 0.052866217
0.025145024 0.0012230459 0.05292093
0.026900437 0.0011741199 0.052927729
0.02913373 0.0012264239 0.053023424
0.031118426 0.0011054255 0.052844517
0.032960616 0.00079337647 0.053107012
0.03475466 0.00073071488 0.052447908
-0.030192144 0.0021363138 0.052255504
-0.029112909 0.0028975194 0.052911554
-0.027058912 0.0032021957 0.053079087
-0.025696488 0.0037889299 0.053833894
0.021234069 0.0031713773 0.053025667
0.023032008 0.0030133605 0.053222243
0.025059462 0.0027782891 0.053138576
0.027018741 0.0027582184 0.053041153
0.029004555 0.0027881775 0.053083643
0.031035889 0.0028692463 0.05297162
0.032721825 0.0027833902 0.052500166
0.034126174 0.0021320535 0.052078016
-0.028402442 0.0047399411 0.052628145
-0.026942367 0.005005734 0.052989922
-0.025079908 0.0051398478 0.053197961
-0.023433939 0.0056440122 0.053639065
-0.016476063 0.0058009266 0.053807918
-0.014908643 0.0052649025 0.053605329
-0.013225131 0.0054589463 0.053629749
0.019638106 0.0054330193 0.053476628
0.020945016 0.0050119809 0.053079717
0.022850815 0.0048665404 0.05271728
0.025076481 0.0047472059 0.052435737
0.027084181 0.0049533956 0.052511245
0.029055245 0.0048601166 0.052423131
0.030824726 0.0043677236 0.052295335
-0.026661027 0.0066544549 0.052663542
-0.02501433 0.0069352244 0.053011015
-0.023030266 0.0070164106 0.053032931
-0.021047596 0.0070532458 0.05319041
-0.019116119 0.0071877078 0.053261675
-0.017009037 0.0069687068 0.053188123
-0.014986444 0.007126282 0.052930009
-0.013049612 0.0069920127 0.052957021
-0.011395048 0.0074056694 0.053467948
0.0037064955 0.0075804531 0.053696185
0.0048861164 0.0075143613 0.053635456
0.0061712195 0.0077226721 0.053832121
0.017441435 0.0074640196 0.053651258
0.018968407 0.006978455 0.052910723
0.020782391 0.0069515128 0.053009558
0.022003563 0.0060324818 0.052387789
-0.024561947 0.0083562396 0.052542001
-0.022865353 0.008734527 0.052956719
-0.020898849 0.008954606 0.052972049
-0.01901282 0.0090348599 0.052950863
-0.016864425 0.0089328662 0.052947093
-0.015056083 0.0088752881 0.0529835
-0.012895484 0.0090588015 0.053050343
-0.011015367 0.0088341525 0.052988477
-0.0091121811 0.0095101139 0.053233158
-0.0075018862 0.0097766425 0.05375997
-0.00020087355 0.0098240245 0.05387228
0.00118811 0.0095925964 0.053472146
0.0030636985 0.0090007326 0.053058758
0.0050152219 0.0090144724 0.052984118
0.0069093057 0.0091034202 0.053092696
0.0089417668 0.0094406502 0.053450394
0.011112439 0.0096407272 0.053456124
0.013261921 0.0094428686 0.053443916
0.01501116 0.0092076119 0.053141557
0.017074276 0.0090246284 0.053059746
0.018947607 0.0089893332 0.052911732
0.020345215 0.0082673114 0.052261166
-0.020843597 0.010145424 0.052156031
-0.018988421 0.010235495 0.052324876
-0.017074548 0.010215987 0.052328698
-0.015338729 0.010120209 0.052132491
-0.012580928 0.010147617 0.052131154
-0.010848703 0.010784298 0.052778807
-0.0089583742 0.010948944 0.052922782
-0.0070578293 0.011015819 0.053053897
-0.0050459215 0.010962609 0.053069413
-0.0029577622 0.011071436 0.052925613
-0.00094507693 0.01097326 0.053031042
0.0009545128 0.011007573 0.05303644
0.0029497801 0.010989586 0.052898094
0.0049310667 0.01083506 0.052786797
0.0070938659 0.011012485 0.052967124
0.0090899514 0.011061641 0.052973241
0.011093216 0.011002524 0.052957498
0.013049251 0.010981496 0.052886985
0.014917974 0.011070646 0.052975465
0.016721798 0.010626741 0.052731611
0.018166816 0.010117222 0.052347302
-0.0086044408 0.012281423 0.052352633
-0.0067489878 0.012505226 0.05276069
-0.0050242259 0.012631446 0.052964807
-0.0030564342 0.012639945 0.053050574
-0.0011129256 0.012602091 0.052851986
0.00082261662 0.012366399 0.052597512
0.0023028296 0.012145246 0.052199688
0.0073183621 0.01213427 0.052190613
0.0091419369 0.012283108 0.052341305
0.011095513 0.012268445 0.052396227
0.012845531 0.012202712 0.052257102
0.014230764 0.012062029 0.052082859
-0.032944128 -0.027130658 0.055008724
-0.031742271 -0.026886504 0.055279046
0.03541173 -0.026845016 0.055797093
0.037168574 -0.027081005 0.055161234
0.038817681 -0.027002843 0.054757666
-0.032988027 -0.024871649 0.054941557
-0.031780187 -0.024985729 0.055031724
0.035467885 -0.025080845 0.055739306
0.03713128 -0.024981037 0.054840066
0.038792364 -0.02507548 0.054888792
-0.033089306 -0.022932811 0.054922853
-0.031651746 -0.023122381 0.055253744
0.03539988 -0.02295962 0.05571191
0.037125435 -0.023113426 0.054897942
0.03877788 -0.023187594 0.054833066
-0.033077419 -0.021029152 0.054963198
-0.031727079 -0.02102896 0.054914072
0.0257989 -0.020178922 0.055992559
0.035389978 -0.021109806 0.055629455
0.036996827 -0.020999121 0.054920588
0.038741924 -0.020998709 0.054755818
-0.03303507 -0.019029498 0.055017639
-0.031564359 -0.019022619 0.055061579
0.025653983 -0.018777242 0.055936437
0.026356511 -0.018715097 0.055941567
0.035174403 -0.019038951 0.055597767
0.037015744 -0.018977679 0.054984976
0.038645957 -0.019013084 0.054680221
-0.032935433 -0.016983803 0.054978129
-0.031441044 -0.017122423 0.055063792
0.025420008 -0.017005699 0.055857245
0.026594106 -0.016903145 0.055869263
0.033890575 -0.016416568 0.055950481
0.034992978 -0.016972592 0.055492047
0.036964525 -0.01702442 0.054874603
0.038594969 -0.017054297 0.054527562
-0.032796409 -0.014926355 0.054912463
-0.031242207 -0.014898647 0.055072397
0.025212571 -0.01493231 0.05572401
0.026842574 -0.01484708 0.055776849
0.033680342 -0.014682395 0.055822134
0.035029296 -0.014985159 0.05524262
0.03698989 -0.014921898 0.054967627
0.038437694 -0.014761474 0.054363817
-0.032554764 -0.012960705 0.055009138
-0.031006077 -0.013004306 0.055130884
0.023885673 -0.01226059 0.055905383
0.024955962 -0.012924413 0.055575661
0.027066436 -0.013146986 0.055680715
0.028266428 -0.012507529 0.055926498
0.031870231 -0.012132876 0.055956025
0.033169586 -0.012915031 0.055746447
0.035039458 -0.01286927 0.054957516
0.036909759 -0.013025809 0.055070609
0.038226422 -0.013224687 0.054315742
-0.032335378 -0.011071827 0.054987274
-0.030996537 -0.010918232 0.055111259
0.023749962 -0.010869759 0.055767428
0.025036987 -0.010968941 0.055298328
0.027051099 -0.010984428 0.055440113
0.028802244 -0.010863343 0.055803381
0.031158758 -0.010906938 0.055853937
0.033061497 -0.010928554 0.055462532
0.035077769 -0.011042888 0.055040013
0.037066348 -0.011062413 0.054783389
0.038060103 -0.011562518 0.054146051
-0.03224026 -0.0092917997 0.054592419
-0.031004304 -0.0090186791 0.055127516
-0.029890167 -0.0086779548 0.055813484
0.023475703 -0.0088876421 0.055593692
0.025003109 -0.0090881074 0.054986518
0.026995724 -0.0090325624 0.055169407
0.029070355 -0.0090349596 0.055564094
0.031072265 -0.009045491 0.055546559
0.033110633 -0.0089708157 0.055070389
0.03503057 -0.0090235751 0.055182401
0.036723245 -0.0090452638 0.054696456
-0.032110076 -0.0076410798 0.054282609
-0.03103864 -0.0069352454 0.054930527
-0.029650494 -0.0068352036 0.055507045
0.023237329 -0.0068564923 0.055331308
0.024982681 -0.0069242143 0.054616518
0.027059883 -0.0070868544 0.054877214
0.028911237 -0.0070012892 0.055187311
0.031043755 -0.0070004277 0.055135194
0.03297716 -0.0068520536 0.054953337
0.034837756 -0.0070726085 0.055104986
0.036603313 -0.0071022855 0.054279584
-0.030892702 -0.0049392548 0.054873891
-0.029411681 -0.0049341908 0.055060118
0.023063762 -0.0049110865 0.054959822
0.025170032 -0.0051586125 0.054880273
0.026932776 -0.0049565225 0.054936606
0.029019659 -0.0047084307 0.054990467
0.031014064 -0.0047651483 0.055007484
0.032822795 -0.0049999682 0.054893412
0.034994155 -0.0050530378 0.054715347
0.036194522 -0.0055550369 0.054113198
-0.030548476 -0.0029847694 0.054984506
-0.028963266 -0.0030188004 0.055093396
-0.027854515 -0.0025027166 0.055762954
0.021811647 -0.0027493499 0.0556763
0.022819955 -0.0031248494 0.054864086
0.025018439 -0.0030287609 0.055385627
0.027082207 -0.0031455662 0.054945782
0.028987473 -0.0030207722 0.054921884
0.030984966 -0.0031063277 0.055041857
0.032974731 -0.0029791836 0.054918963
0.034560952 -0.0031367424 0.054315612
-0.030308835 -0.0013015866 0.054454897
-0.029026845 -0.0010262778 0.055075519
-0.027293772 -0.00077409908 0.055392399
-0.014669066 -3.2212025e-05 0.055993088
0.021591423 -0.0009572705 0.055128317
0.022953115 -0.00099085073 0.055108763
0.024862282 -0.0010837209 0.05480773
0.027014017 -0.001157357 0.05494329
0.029099973 -0.0010041562 0.055047054
0.031013034 -0.0010614382 0.054853041
0.032870069 -0.0011863564 0.054359008
0.034118429 -0.0019238358 0.05410029
-0.028853478 0.00089022395 0.054893538
-0.027017623 0.0010145352 0.054961916
-0.025312591 0.0012789377 0.055653717
-0.016527627 0.0016792869 0.055748932
-0.01501178 0.0011526195 0.055567477
-0.013646752 0.0011953361 0.055751279
0.021079758 0.0010253468 0.055036865
0.023043314 0.0009568173 0.054857627
0.024925034 0.0006369272 0.054197844
0.027034679 0.00092785107 0.054267853
0.028951341 0.0008533611 0.05436299
0.030796424 0.00054595195 0.054274037
0.032291658 0.00013390806 0.054045353
-0.028389946 0.002620786 0.054355934
-0.026980532 0.0030862931 0.054994795
-0.025136324 0.0030747624 0.054896954
-0.023088414 0.0032223035 0.055453327
-0.021186026 0.0034767701 0.055682059
-0.01895128 0.0033173223 0.055719808
-0.016983313 0.0029386287 0.055411573
-0.015032426 0.0030593791 0.0547507
-0.013012848 0.0030303057 0.055219382
-0.011865735 0.0035521416 0.055930179
0.0047553522 0.0038358935 0.055918127
0.019474419 0.0032113593 0.055480238
0.021021184 0.0030878973 0.055032864
0.022388302 0.0025375132 0.054544114
-0.026586721 0.004715025 0.054414712
-0.024934744 0.0048781205 0.055094551
-0.022930643 0.0050641871 0.055012856
-0.021068802 0.0051474003 0.054939691
-0.018972576 0.0050835228 0.054889843
-0.017072288 0.0051472615 0.054910649
-0.015006907 0.0050067161 0.055311214
-0.013076907 0.0050328053 0.055074755
-0.011304701 0.0052946 0.055328052
0.0032511717 0.0054057767 0.055474613
0.0050066444 0.0050194478 0.055286136
0.006645984 0.0053953729 0.055600896
0.0080269622 0.0059701293 0.055993434
0.017205231 0.0054870057 0.055626843
0.019080965 0.0049609309 0.055036303
0.020896947 0.0048570442 0.05478714
-0.024677971 0.0063267103 0.054356743
-0.023031471 0.006913566 0.054578848
-0.020974305 0.0070197801 0.05489121
-0.01901501 0.0068389615 0.055018503
-0.017109407 0.0069716326 0.054854952
-0.015047868 0.0067251599 0.054526709
-0.012855878 0.0069100419 0.054870997
-0.010912244 0.0069278842 0.054976493
-0.0091567701 0.0073824571 0.055403102
-0.0075397412 0.0077845943 0.055890802
-0.00034014191 0.0078462139 0.055874549
0.0011376056 0.0073245722 0.055575367
0.0030584387 0.0069461553 0.05496645
0.0050351326 0.0069685834 0.054977138
0.006892012 0.0069813067 0.054962914
0.008872766 0.0071047065 0.055466015
0.010945283 0.0074927029 0.055534869
0.013145975 0.007460562 0.055469375
0.015145693 0.0071748262 0.055200174
0.016939934 0.0071398909 0.055004057
0.01890976 0.0068957047 0.054927975
0.020211227 0.0064612781 0.054302372
-0.020591659 0.0081602465 0.054133747
-0.018867349 0.008219393 0.054180592
-0.017544722 0.008227272 0.054083824
-0.012260696 0.0082564885 0.054153942
-0.010918766 0.0087678321 0.054890573
-0.0090313358 0.0090969792 0.055014357
-0.0069213626 0.0089486688 0.055093966
-0.0050971247 0.0092345336 0.055045519
-0.0029292251 0.009182699 0.055148736
-0.00087131001 0.0090560997 0.055107754
0.0010593942 0.0089595299 0.055029221
0.0028701136 0.0089366511 0.054992195
0.0050001647 0.0087488126 0.054611336
0.0069979392 0.0090162326 0.054922853
0.0088991858 0.0089335684 0.054999851
0.01101945 0.0090334155 0.055061061
0.013050948 0.0090082623 0.055089656
0.014955845 0.0089586042 0.055064276
0.01686636 0.0087633701 0.054813188
0.018293247 0.0081819464 0.054478601
-0.010127406 0.010222838 0.054020986
-0.0089289164 0.010428299 0.054500461
-0.0068641696 0.010759341 0.054981422
-0.0049748993 0.010947499 0.054989301
-0.0030808502 0.010890562 0.055126738
-0.001029553 0.01091837 0.054908108
0.00078847952 0.010593242 0.054657441
0.0023782812 0.010235761 0.054207858
0.0076944851 0.010187749 0.054324552
0.0090683419 0.0104649 0.054370862
0.011181502 0.01049555 0.054533996
0.012881143 0.010437923 0.054452822
0.014704958 0.010262001 0.054189648
-0.032377291 -0.026920181 0.056871034
-0.031033199 -0.027090723 0.057085142
0.023528267 -0.026912557 0.057456654
0.025058031 -0.027139649 0.056902558
0.026938559 -0.027115183 0.057130724
0.028992549 -0.027176693 0.057044309
0.030959059 -0.027097516 0.057098534
0.033211086 -0.027033884 0.057154201
0.034854036 -0.027134802 0.057014741
0.03667238 -0.026910553 0.056545552
-0.032458734 -0.025071591 0.056824066
-0.030936394 -0.025013801 0.057174765
0.023491923 -0.025026236 0.057406772
0.025021812 -0.024934281 0.056533713
0.027081175 -0.025025198 0.057018556
0.028883653 -0.025018534 0.056875166
0.03109277 -0.024969952 0.056926172
0.033199649 -0.024927322 0.057058919
0.034751583 -0.025057482 0.057055589
0.036791094 -0.024922626 0.056521431
-0.032490388 -0.023040133 0.056668125
-0.030848319 -0.022992212 0.057295304
-0.029972892 -0.022421695 0.057960678
0.023476928 -0.023003036 0.057370681
0.025064237 -0.02301055 0.05661162
0.026961444 -0.023004539 0.057129741
0.029050365 -0.023061253 0.056831714
0.030939754 -0.02304999 0.056883074
0.033104081 -0.022916878 0.056908898
0.034844462 -0.023061587 0.057082321
0.036795523 -0.022935104 0.056454435
-0.032409187 -0.021114768 0.056682348
-0.030996908 -0.020956442 0.057053864
-0.029917628 -0.020768238 0.057899959
0.023449639 -0.021010919 0.057315633
0.025171634 -0.021128636 0.056640822
0.027009426 -0.021117793 0.05690024
0.028779181 -0.020937379 0.056962054
0.030933427 -0.021062132 0.05680928
0.033091791 -0.020842798 0.056906354
0.034846473 -0.020991821 0.057072122
0.036763288 -0.021025565 0.056388941
-0.032329436 -0.019092657 0.056632318
-0.030919293 -0.01897718 0.057172198
-0.029844467 -0.019219395 0.05786166
0.023305865 -0.019094216 0.057353862
0.024999801 -0.019106675 0.056867708
0.027185492 -0.01896668 0.056999717
0.028865572 -0.018956965 0.056982748
0.031056009 -0.019036094 0.056772701
0.033144414 -0.018894626 0.057162292
0.034838013 -0.019041412 0.057017345
0.03661564 -0.018916911 0.056331027
-0.032245759 -0.017098118 0.05653042
-0.030957654 -0.017055508 0.057037655
-0.029765723 -0.017003808 0.057701197
0.023359105 -0.017001407 0.057092022
0.025027063 -0.017068788 0.057163011
0.027162097 -0.016963389 0.057042748
0.029077468 -0.016930463 0.057183489
0.031058965 -0.016962787 0.057130206
0.032988433 -0.016869012 0.057086248
0.034957074 -0.017112352 0.057006773
0.03645866 -0.017166233 0.056262027
-0.03217461 -0.015046269 0.056306899
-0.031089252 -0.015031635 0.056985036
-0.029556751 -0.014819652 0.057609167
0.023237597 -0.015081768 0.057011418
0.025058683 -0.014939044 0.057330102
0.027068967 -0.01504529 0.057103116
0.029115034 -0.015034606 0.057144169
0.03108144 -0.015052681 0.057105046
0.032889605 -0.015035334 0.05699943
0.034927506 -0.015108949 0.056829639
0.036197428 -0.014666272 0.056122895
-0.032065742 -0.013098518 0.056113925
-0.031025467 -0.013024729 0.05689555
-0.029465634 -0.012971664 0.057378259
0.023152726 -0.0130705 0.056853827
0.02506057 -0.013058892 0.057413585
0.027037615 -0.013080529 0.057158545
0.029183121 -0.013091728 0.056944087
0.030986052 -0.013064726 0.056838218
0.03286713 -0.013101362 0.057048295
0.03502097 -0.012939596 0.056490909
0.036104552 -0.013468529 0.056016691
-0.031078828 -0.011111705 0.056779295
-0.029301982 -0.010970032 0.057114754
0.022832368 -0.010964056 0.057085525
0.025019376 -0.010905855 0.057177305
0.026954599 -0.010955381 0.056901898
0.029058082 -0.010992909 0.057143435
0.030911647 -0.011137078 0.057077929
0.033157658 -0.011014842 0.056879949
0.03472409 -0.011066422 0.056332104
-0.030818176 -0.0090604965 0.056951933
-0.029002899 -0.0089495806 0.056977507
-0.027839487 -0.00855204 0.057880692
0.021964917 -0.0086320695 0.057744432
0.022871424 -0.0089608515 0.057081945
0.024904864 -0.0091435211 0.056928974
0.027084988 -0.0089492621 0.056631409
0.029078191 -0.0090535823 0.056945983
0.031073231 -0.0090020625 0.056921307
0.032924946 -0.0089502232 0.056568611
0.034283563 -0.0092518935 0.056167137
-0.03050904 -0.0070627392 0.056736633
-0.028972067 -0.0069947136 0.05712432
-0.027405696 -0.0068443697 0.057710756
-0.016247207 -0.0064723892 0.057907712
-0.015311581 -0.0064380751 0.057833552
0.021759719 -0.0068605603 0.057537116
0.022981595 -0.0070231841 0.057089135
0.024902994 -0.0071107699 0.056479443
0.027175969 -0.0070930896 0.056336075
0.029037299 -0.0070395828 0.05658314
0.031016566 -0.0069450713 0.0565225
0.032754902 -0.0072328523 0.056252528
-0.030306458 -0.0052614021 0.056352895
-0.028973065 -0.0051031495 0.056953691
-0.0270628 -0.0049819928 0.057338551
-0.025744522 -0.0043488131 0.057915967
-0.016712647 -0.0050556757 0.057772499
-0.014921169 -0.0050514704 0.057575524
-0.01367961 -0.0043336418 0.057771556
0.021488544 -0.0050067925 0.057259716
0.02303654 -0.0049844221 0.056950506
0.024546217 -0.0054087718 0.05617445
0.027455492 -0.0054591042 0.056074038
0.029073337 -0.0051835533 0.05619603
0.030867776 -0.0052803485 0.056138605
0.032093998 -0.0059146667 0.056120813
-0.030026764 -0.0038067941 0.056103479
-0.029009365 -0.0031188352 0.05686795
-0.027155124 -0.0029902046 0.056933094
-0.025126435 -0.0027849341 0.057613447
-0.023718705 -0.0023123557 0.057933345
-0.018569805 -0.0024968092 0.057876859
-0.017074475 -0.0028877689 0.057415128
-0.014915242 -0.002924857 0.05698254
-0.013344523 -0.0028273959 0.057523515
0.021112582 -0.003014676 0.056998521
0.022850607 -0.0029765901 0.056904372
-0.028467732 -0.0010733668 0.056452081
-0.026996113 -0.0010380702 0.056994971
-0.025186798 -0.0010187239 0.057016499
-0.023084437 -0.0011352396 0.057609137
-0.021000272 -0.00095353194 0.057734046
-0.019085798 -0.0011201075 0.057571039
-0.017016709 -0.00099819747 0.056997962
-0.015098455 -0.0007873525 0.056678593
-0.012886205 -0.00085695431 0.057217248
0.0037709761 -0.00014210063 0.057955798
0.0051302309 -0.00049890333 0.057849213
0.0062161162 -0.00026263995 0.057946868
0.019640395 -0.00063856173 0.057656359
0.020867001 -0.0010609959 0.056893978
0.022425584 -0.0010231903 0.056567367
-0.028158534 8.2522063e-05 0.056153901
-0.026733791 0.0010669763 0.056665771
-0.024987014 0.00095338479 0.057009328
-0.023141846 0.0011122355 0.05690369
-0.020943798 0.0010800153 0.056924555
-0.019011715 0.0010700308 0.056989282
-0.017022321 0.00098299631 0.05702218
-0.015012181 0.00099371851 0.057306603
-0.012982244 0.0010829612 0.057077434
-0.011623016 0.0012664869 0.057572473
0.0034948615 0.0011626082 0.057563715
0.004968883 0.0010719347 0.057239287
0.0066931918 0.0011964953 0.057652231
0.017791804 0.0017966084 0.057831347
0.019150373 0.0010119625 0.057246447
0.020990195 0.00099989364 0.056964397
0.022173321 0.00025426649 0.056259848
-0.026468907 0.0023179376 0.056150258
-0.024918577 0.0029097772 0.056607667
-0.022995591 0.0029441488 0.057035599
-0.021012159 0.0028620893 0.056998413
-0.019082444 0.0028455951 0.056989037
-0.01719364 0.003114281 0.056874238
-0.014901754 0.0029615154 0.056553848
-0.012959092 0.0030385712 0.057100631
-0.011083451 0.0030239481 0.057168957
-0.0097640734 0.0037417957 0.057843179
0.0017051561 0.0035983596 0.057761323
0.0029613576 0.0031457015 0.057034094
0.0050356933 0.0032246106 0.056980085
0.0070511377 0.003105175 0.057081535
0.0088021578 0.0035128829 0.05772274
0.010030618 0.003983045 0.057879291
0.015369415 0.0037110741 0.05782143
0.01712952 0.0031323344 0.057382807
0.019084785 0.0030161338 0.057030976
0.020636642 0.0028736319 0.056630779
-0.024191672 0.004226855 0.056121793
-0.022990791 0.0045393994 0.056310527
-0.020988788 0.0048633679 0.056446783
-0.018948453 0.0049125412 0.05640132
-0.017177604 0.004598727 0.056239877
-0.015833834 0.0041254214 0.056072388
-0.012691092 0.0048836581 0.056453522
-0.011020225 0.005140828 0.057040717
-0.0090745948 0.0052110581 0.057240851
-0.0073377965 0.0056786956 0.05774077
-0.0057868157 0.0059460965 0.0579754
-0.00059698644 0.0055294405 0.057805993
0.0011645145 0.0051826406 0.057137862
0.0029180881 0.0050512617 0.056972601
0.0050036954 0.0049331281 0.057192065
0.006963829 0.0050383615 0.057092749
0.0090256687 0.0050576744 0.056997277
0.010973237 0.0051199291 0.057308223
0.013012377 0.0051722182 0.05729603
0.014968602 0.0049934098 0.057114381
0.016968826 0.0051454059 0.057024766
0.018893866 0.0050921347 0.056708377
0.020051846 0.0044466145 0.056190267
-0.010770226 0.0068962118 0.056688584
-0.0090345023 0.0070629655 0.057056699
-0.0070328857 0.0070521291 0.056971122
-0.0049528992 0.0070164856 0.057209603
-0.0029453298 0.0070859948 0.057154771
-0.0010628839 0.0071194563 0.056913096
0.00098632707 0.0069009187 0.057029057
0.0028304132 0.0068944274 0.056710366
0.0050496366 0.0064631812 0.056256462
0.007069339 0.0068810582 0.056647807
0.0090279188 0.0069009066 0.057185501
0.010993998 0.0068484596 0.056977507
0.013016735 0.007166333 0.057080574
0.014927072 0.0069447416 0.057098527
0.016932961 0.0067901565 0.056632016
0.018237572 0.0064268587 0.05615665
-0.010016162 0.0081103407 0.056244388
-0.0087594539 0.0084889755 0.056599449
-0.0068703992 0.0088383332 0.057013977
-0.0049956539 0.0089110965 0.05686846
-0.0030243273 0.0089986874 0.056961074
-0.0011080033 0.0089015877 0.056901839
0.00077238848 0.0087494049 0.056473307
0.0022031995 0.0081893969 0.056165092
0.0074940166 0.0081117209 0.056009308
0.0091229221 0.0083866622 0.056286193
0.011063019 0.0085376743 0.056428537
0.012822842 0.0084298132 0.056485236
0.014538714 0.0082318056 0.056340899
-0.0049512913 0.010144853 0.056093864
-0.0033347835 0.010100737 0.056199796
-0.0019366695 0.010022282 0.056114249
-0.030726688 -0.027054165 0.058919907
-0.029162293 -0.027036259 0.05910062
-0.027847864 -0.026546024 0.059866119
-0.016695861 -0.026963111 0.059769213
-0.015246748 -0.026959894 0.059768528
0.02304331 -0.027073419 0.059220567
0.024733227 -0.026914425 0.058561437
0.029213609 -0.027021416 0.058192708
0.031007232 -0.027005326 0.058281343
0.032645278 -0.026811443 0.058146112
-0.03087882 -0.025067827 0.059025615
-0.029043611 -0.024985554 0.05900196
-0.027843291 -0.024973042 0.059835464
-0.016729066 -0.025039479 0.059725992
-0.015251188 -0.024992442 0.0597324
0.022897499 -0.024945071 0.059194792
0.024738587 -0.025037996 0.058589447
0.029025141 -0.025004463 0.058156628
0.031029465 -0.025074737 0.058282845
0.032636125 -0.025004657 0.0581402
-0.030815471 -0.022924028 0.059030607
-0.029056709 -0.022985796 0.05899341
-0.027780538 -0.022840288 0.059816591
-0.01670406 -0.023006849 0.059694972
-0.015081456 -0.023105394 0.059724733
0.021996632 -0.022783939 0.059941471
0.022858273 -0.022998162 0.059091222
0.024707515 -0.022993989 0.058532674
0.029154902 -0.023032185 0.058134284
0.030941442 -0.022936359 0.058239993
0.032562077 -0.022903915 0.058100045
-0.030810341 -0.020964462 0.058921278
-0.029067587 -0.02106763 0.059010614
-0.027619949 -0.020833077 0.059815738
-0.016887907 -0.021040918 0.059679609
-0.015118506 -0.021007739 0.059642162
0.021962576 -0.021346238 0.059906073
0.022876028 -0.020977104 0.059013031
0.024639536 -0.02088204 0.058477324
0.029374041 -0.021083556 0.058099493
0.030835327 -0.021028496 0.058170129
0.032398019 -0.021054717 0.05805397
-0.030690413 -0.019004529 0.058895584
-0.029156514 -0.018990083 0.05902452
-0.027518207 -0.018920707 0.059735157
-0.016872859 -0.018891543 0.059578892
-0.014911707 -0.01895719 0.05959107
0.021868158 -0.019011177 0.05983426
0.022933079 -0.018997096 0.059125304
0.02451548 -0.018955771 0.058443401
0.029629953 -0.019289957 0.058046028
0.030993095 -0.019223595 0.058077533
0.032099761 -0.019654807 0.058024824
-0.030710716 -0.016991306 0.058664814
-0.029049734 -0.01693039 0.058966905
-0.027309705 -0.017095337 0.059683554
-0.018068191 -0.016823279 0.059936307
-0.017037602 -0.016908776 0.059513967
-0.014965638 -0.016995769 0.059438746
-0.013835611 -0.016681196 0.059905998
0.021780701 -0.01708493 0.059759639
0.022966614 -0.017073853 0.059057608
0.024420915 -0.017031467 0.058345623
0.030581165 -0.017855033 0.058007687
-0.030615449 -0.015096627 0.058510292
-0.02895293 -0.015004602 0.058954366
-0.027123092 -0.01487799 0.059512369
-0.018302709 -0.014587563 0.059881985
-0.017044323 -0.014933271 0.059357472
-0.014896701 -0.015051261 0.059263647
-0.013734435 -0.015061878 0.059823297
0.021638904 -0.014937776 0.059646141
0.023074219 -0.015040815 0.0589719
0.024278991 -0.015348528 0.058273982
-0.030394804 -0.012938503 0.058391687
-0.028986987 -0.013095642 0.059012327
-0.027099673 -0.012909395 0.059231136
-0.025608838 -0.012666668 0.059914164
-0.018412469 -0.013026135 0.05976288
-0.01691301 -0.013039367 0.059128333
-0.014931571 -0.013077309 0.059046268
-0.013568659 -0.01294802 0.059692703
0.02153548 -0.012933857 0.059448976
0.023108775 -0.012975887 0.058966544
0.024085281 -0.013210415 0.058140978
-0.030141681 -0.011026897 0.058261435
-0.028899794 -0.011061571 0.059054554
-0.026992995 -0.010870173 0.059037372
-0.025122833 -0.01088119 0.059766702
-0.020321649 -0.010123764 0.059973091
-0.018852541 -0.010986526 0.059676897
-0.017033065 -0.010918897 0.058913715
-0.015068955 -0.011009022 0.058713675
-0.013505017 -0.01099976 0.059454717
0.021432769 -0.011033348 0.059181131
0.023004048 -0.011080576 0.058932036
-0.030016614 -0.0097125638 0.058089875
-0.028953534 -0.0089233629 0.058822859
-0.027072215 -0.0090956241 0.05896455
-0.025180561 -0.0089924252 0.059372511
-0.023181897 -0.0089214612 0.059807353
-0.021039162 -0.0088281231 0.059826095
-0.01892625 -0.0090073664 0.059401806
-0.016861916 -0.0088668959 0.05875586
-0.015065251 -0.0090296641 0.058526926
-0.01324359 -0.0089748409 0.059318442
0.0051371157 -0.0083517125 0.059921563
0.02110154 -0.0088789919 0.059074875
0.022854229 -0.0090302192 0.059026591
-0.028621912 -0.0070830239 0.05859828
-0.026976598 -0.006970474 0.059056677
-0.025043942 -0.0069629955 0.058967926
-0.023021365 -0.0069244565 0.059405278
-0.020858543 -0.0070824646 0.059462469
-0.018881314 -0.0069150249 0.059016053
-0.016938698 -0.0070206933 0.058968365
-0.015026829 -0.0071606496 0.05912384
-0.013129217 -0.0069011073 0.058979381
0.0037326035 -0.0064986218 0.05988453
0.0049926145 -0.0070588314 0.059707012
0.0064529474 -0.0067808586 0.059838235
0.019828262 -0.0062895194 0.059746023
0.021037031 -0.007021416 0.059108138
0.022630693 -0.0070835049 0.058791
-0.028319515 -0.0050677368 0.058222018
-0.027027939 -0.0049013812 0.058892231
-0.025076577 -0.0049588759 0.058959316
-0.022908485 -0.0050093681 0.058927834
-0.021007929 -0.0050642923 0.058999795
-0.018812347 -0.0049309656 0.059068345
-0.017123763 -0.0050622718 0.059069853
-0.014882714 -0.0049280645 0.059384249
-0.012962297 -0.0049327048 0.058883749
-0.011837555 -0.004435041 0.059778284
0.0034415331 -0.0048470153 0.05965538
0.0051221065 -0.0049682357 0.059219763
0.0066947239 -0.0050866683 0.059592828
0.019504173 -0.0047932584 0.059521131
0.021046642 -0.0049681198 0.05899084
0.02236658 -0.0049491627 0.058446549
-0.028016608 -0.0039081732 0.058036033
-0.026803108 -0.0031474058 0.05851068
-0.024908049 -0.0031200068 0.059046488
-0.02282881 -0.0029585697 0.058906328
-0.021032812 -0.0028054705 0.059006147
-0.019034468 -0.0031066365 0.059041671
-0.017051967 -0.0029149156 0.058958884
-0.014902681 -0.0030287756 0.058842964
-0.012827296 -0.0029292211 0.058971763
-0.011541367 -0.0028856464 0.059548482
0.0031401962 -0.0027765736 0.059289664
0.0049788281 -0.002888317 0.058651872
0.0069437861 -0.0028681494 0.059170365
0.0081960736 -0.0027480561 0.059919398
0.017859096 -0.0023949277 0.059809726
0.01901591 -0.0029373842 0.059209239
0.021138374 -0.0029947797 0.058911867
0.022170179 -0.0035865055 0.058179591
-0.026383918 -0.001678263 0.05818262
-0.024979806 -0.0011038678 0.058553115
-0.023014026 -0.0010279089 0.059000656
-0.021051267 -0.0011241413 0.05907698
-0.019005205 -0.0010040177 0.058962259
-0.017036254 -0.0010870975 0.058434553
-0.014850467 -0.0011975636 0.058257107
-0.013101012 -0.00092511351 0.059033975
-0.011193038 -0.00091826596 0.059093609
-0.0098390626 -0.00026565036 0.059972722
0.0017330461 -0.00077932875 0.059786279
0.0029250018 -0.00092582143 0.058913656
0.0049999799 -0.0011593614 0.059007995
0.0069252215 -0.00098911393 0.058840796
0.0088249967 -0.00084278255 0.059610676
0.010283902 -0.00021356621 0.059928931
0.015216649 -0.00013795745 0.059936624
0.017224448 -0.00090345868 0.05950278
0.018989604 -0.0009415258 0.058983687
0.020787539 -0.0011958433 0.058776684
-0.024508987 0.00025467979 0.058165118
-0.02294896 0.0007304179 0.058336038
-0.020888118 0.0010643266 0.058389325
-0.01894287 0.00076687889 0.058328673
-0.017608074 0.00038953469 0.058160011
-0.012752152 0.00091729307 0.058667075
-0.010954526 0.00090891996 0.058904201
-0.0093730595 0.0011759243 0.05956877
-0.00025603463 0.0018197927 0.059870072
0.001020459 0.0010237267 0.059514679
0.0028839328 0.0010446102 0.058929659
0.0049927444 0.001024976 0.059085067
0.007087077 0.0011137328 0.059079058
0.0089853304 0.0010352326 0.058976319
0.01088612 0.0011987397 0.059455443
0.013036764 0.0011736613 0.059641059
0.014897034 0.0010251012 0.05945611
0.017021576 0.0010894641 0.058976632
0.018915793 0.0010211581 0.059042152
0.02039228 0.00058234448 0.058303505
-0.012372033 0.0025470741 0.058193441
-0.010995374 0.0030395687 0.058936223
-0.0090369685 0.0031670278 0.058947422
-0.0070507312 0.003370459 0.059422847
-0.005182507 0.0035342004 0.059714347
-0.0030758644 0.0034894536 0.059735466
-0.0008095309 0.0031170719 0.059388433
0.00094736915 0.0030321351 0.058914926
0.0030586615 0.0028516066 0.058826707
0.0051041646 0.0027362488 0.058329809
0.0070845811 0.0030598897 0.058768891
0.0089479899 0.002922992 0.059130635
0.010965663 0.0031528212 0.058959816
0.013108655 0.0032280092 0.058874507
0.015024157 0.0031154174 0.058959637
0.016917083 0.0028968826 0.059054021
0.018564591 0.0027431168 0.058535498
-0.010532679 0.004740533 0.058493797
-0.0088890698 0.0049387007 0.059041612
-0.0069126054 0.0050038798 0.058898009
-0.0050988719 0.0051822318 0.058898289
-0.003039303 0.0051416117 0.059033416
-0.00094983954 0.0050079119 0.058870751
0.00095801894 0.0049494212 0.058981169
0.0025408461 0.0046481695 0.058375396
0.00745208 0.0043849247 0.058309522
0.0090571009 0.005059687 0.058553487
0.011008549 0.0048883129 0.058903825
0.013018372 0.0049396777 0.059024867
0.015048312 0.0049267136 0.058766302
0.016771082 0.0045676841 0.058393039
-0.00865342 0.0064779697 0.058371346
-0.0070331986 0.0068011093 0.058737326
-0.0049714711 0.0069153402 0.059002355
-0.0030458176 0.0071301428 0.058880143
-0.0009161093 0.0068603265 0.05867099
0.00070182438 0.006509352 0.058297373
0.0096419519 0.0061969613 0.05802967
0.011056512 0.0062376154 0.058207706
0.012857954 0.0063191224 0.058186565
0.01446698 0.0061286511 0.058082622
-0.0046958174 0.0081135593 0.05809598
-0.0029269592 0.008135641 0.05805948
-0.028810598 -0.027041366 0.060673404
-0.026993869 -0.027112991 0.061028406
-0.024981989 -0.027154999 0.061280955
-0.023024982 -0.027058881 0.061456032
-0.021007331 -0.027125616 0.061327953
-0.018891381 -0.027107587 0.061044127
-0.017091701 -0.027085973 0.060961589
-0.014912749 -0.027110152 0.061191425
-0.013366092 -0.026954178 0.061023202
0.0038323714 -0.027154623 0.061803203
0.0050972071 -0.02699296 0.061524682
0.0065371306 -0.026808273 0.061672561
0.021218302 -0.0270238 0.061185289
0.022890007 -0.027051568 0.060948867
-0.029018383 -0.024948748 0.060670041
-0.027042609 -0.024974236 0.061017033
-0.025004024 -0.024939049 0.061057288
-0.023012392 -0.025007248 0.061345126
-0.021025978 -0.024907701 0.061233319
-0.018890275 -0.024988787 0.060919095
-0.017202672 -0.025007572 0.061238747
-0.015065942 -0.025007691 0.061368313
-0.01309189 -0.025060633 0.061217517
0.003739961 -0.025213502 0.06180932
0.0049287551 -0.025009619 0.061464872
0.0065358025 -0.025003059 0.061620001
0.021160111 -0.024984568 0.061060138
0.02288348 -0.025006926 0.061051331
-0.028898254 -0.022976955 0.060693752
-0.027052304 -0.022937024 0.061059225
-0.02509631 -0.023041168 0.060976192
-0.023009958 -0.022853514 0.06129222
-0.020989388 -0.023032485 0.061179116
-0.018882329 -0.023031406 0.060945693
-0.017205048 -0.022973984 0.061118059
-0.014993101 -0.023043789 0.061423421
-0.013239203 -0.022875046 0.060983706
0.0036301285 -0.022851184 0.061816987
0.0050732782 -0.023143169 0.061418373
0.0066737309 -0.022991024 0.061639752
0.021115195 -0.022940448 0.061040077
0.022973919 -0.022944201 0.060878698
-0.02889969 -0.021065848 0.060595661
-0.026852839 -0.020991344 0.06104283
-0.024969544 -0.020808816 0.06091233
-0.022907706 -0.020987354 0.061210986
-0.020982634 -0.021112567 0.061108213
-0.018740006 -0.020985637 0.061069652
-0.017137788 -0.020915858 0.061175965
-0.014958116 -0.02101347 0.061276637
-0.013153467 -0.02097974 0.061004594
0.0035900313 -0.020887841 0.061774816
0.0049109631 -0.021022536 0.061345089
0.0067739799 -0.020984409 0.061611027
0.021004951 -0.020890841 0.061060049
0.022748847 -0.02101237 0.061082192
-0.028698919 -0.019099139 0.060600296
-0.026759814 -0.018937333 0.061039686
-0.025093626 -0.018891817 0.060915221
-0.022893431 -0.018976631 0.061099481
-0.021088054 -0.018995319 0.061006896
-0.018807584 -0.018916054 0.060922693
-0.017012788 -0.018937513 0.061215717
-0.01494071 -0.018976767 0.061498605
-0.013038636 -0.019015787 0.061011616
0.003550858 -0.018899269 0.061684269
0.0049686027 -0.019143485 0.061242275
0.0068453494 -0.018942621 0.061546728
0.019931495 -0.018891398 0.061931424
0.021045467 -0.018876998 0.061083023
0.022705179 -0.019037966 0.060977392
-0.028709101 -0.017135322 0.060408626
-0.026884004 -0.017078921 0.061016191
-0.025166076 -0.016963851 0.061047982
-0.023060329 -0.017049931 0.06093752
-0.020912964 -0.016999761 0.060862135
-0.0190029 -0.017080108 0.061030049
-0.017029369 -0.016892806 0.061123058
-0.01499452 -0.017044274 0.061337236
-0.012933992 -0.017020183 0.061059196
0.0034474907 -0.016900798 0.061620474
0.0050710905 -0.017036881 0.061089482
0.0070853443 -0.01688645 0.061549719
0.019770307 -0.016774906 0.061844576
0.021009535 -0.017040163 0.060925413
0.022694765 -0.016872106 0.060770333
-0.028460788 -0.015172045 0.060356803
-0.026912725 -0.0149197 0.060967207
-0.025051987 -0.015030345 0.061068669
-0.023080327 -0.014964011 0.06083091
-0.020974014 -0.014901445 0.060907319
-0.019178683 -0.014974169 0.061055481
-0.017122518 -0.014916744 0.060986742
-0.014908373 -0.014932799 0.061164659
-0.012996532 -0.014972326 0.06115178
-0.011924425 -0.01464345 0.06196072
0.0034133559 -0.014975254 0.061464146
0.0050069527 -0.015202641 0.060931768
0.0069424459 -0.014934011 0.061308317
0.0081212558 -0.0142999 0.061973535
0.019686203 -0.014695813 0.061664484
0.020967277 -0.014926734 0.061020445
0.022593422 -0.014990686 0.060654376
-0.028294792 -0.013308979 0.060189042
-0.027028477 -0.012967678 0.060818639
-0.024815483 -0.013054774 0.060939528
-0.023016093 -0.013004662 0.061163407
-0.020931618 -0.012869103 0.061136201
-0.019112952 -0.013024362 0.060788862
-0.016991742 -0.013034218 0.06075754
-0.01497112 -0.013018182 0.060920525
-0.012891067 -0.012999288 0.061136093
-0.011811013 -0.012659245 0.061779503
0.0032805072 -0.012980788 0.061350033
0.0049707205 -0.013022501 0.060682341
0.0070123943 -0.012915801 0.06112244
0.0082290899 -0.012532406 0.061868243
0.019422617 -0.012855599 0.061570529
0.020997539 -0.013015897 0.061084896
0.022415554 -0.012947906 0.060554631
-0.02812182 -0.011613578 0.060029436
-0.027008077 -0.011153957 0.060526025
-0.024900824 -0.010985989 0.060861349
-0.023025099 -0.010967893 0.060822602
-0.020986993 -0.011068377 0.060808714
-0.01895456 -0.010866632 0.061087139
-0.017073115 -0.011034259 0.06053602
-0.014917669 -0.010939355 0.060635839
-0.012996176 -0.011057466 0.061142564
-0.011583603 -0.0108975 0.061706215
0.0032049036 -0.010947053 0.061104827
0.0049199499 -0.011030765 0.060414225
0.0070606256 -0.010987831 0.060912129
0.0084892465 -0.010819116 0.061790947
0.019141467 -0.010975307 0.061431404
0.021184035 -0.010955101 0.061101165
0.022277476 -0.011109871 0.060363773
-0.026731452 -0.0092241578 0.060282648
-0.025029328 -0.0091054328 0.060886383
-0.022981575 -0.0091905389 0.061086904
-0.021150988 -0.0090738675 0.061160378
-0.018947773 -0.0090448605 0.060858231
-0.017172836 -0.0090727499 0.060258586
-0.014833931 -0.0090420851 0.060326356
-0.013026427 -0.0089648534 0.060995009
-0.011430366 -0.008938103 0.061454706
0.0018979971 -0.0085766176 0.06185782
0.0030105959 -0.0090700593 0.060956094
0.0051059751 -0.0090837236 0.061037716
0.0069244388 -0.0089330822 0.060873885
0.0086929407 -0.0088362424 0.061579302
0.017626718 -0.0089000491 0.061879449
0.019019557 -0.0088928603 0.061048381
0.0208914 -0.0089042587 0.061065469
0.022100596 -0.0093958443 0.060199548
-0.026354641 -0.0076491884 0.060107589
-0.024963148 -0.0070795533 0.060459632
-0.022957388 -0.0068465234 0.060782976
-0.02104925 -0.0069992798 0.060848892
-0.018971536 -0.0068692164 0.060456324
-0.017643625 -0.0072920802 0.060115397
-0.014257786 -0.0071239569 0.060157441
-0.012993572 -0.0069255698 0.060953282
-0.011095866 -0.0069709443 0.061275676
-0.0099843061 -0.0060746111 0.06196456
0.0015396 -0.0067172563 0.061748378
0.0031654828 -0.0070322989 0.06092966
0.0049470398 -0.006937759 0.061489973
0.0069456268 -0.0070158956 0.061045717
0.0088417325 -0.0070265904 0.061304513
0.010439862 -0.0065723974 0.061882194
0.015574625 -0.0062831352 0.061983384
0.017083101 -0.0069316193 0.061650913
0.019134572 -0.0071239225 0.06100316
0.020921428 -0.0070789512 0.060819503
-0.024534808 -0.0052935495 0.060122818
-0.023015184 -0.0049631991 0.0603058
-0.020865342 -0.0049815122 0.060370937
-0.0193254 -0.0052475939 0.060202423
-0.012809766 -0.0050148317 0.060909059
-0.011066689 -0.0048877751 0.060970496
-0.0096439989 -0.0046850331 0.061765406
0.0011984091 -0.0048733917 0.06150426
0.0029186613 -0.0049305134 0.061111018
0.0049959593 -0.0049776086 0.061034288
0.0070896554 -0.0051171039 0.061135951
0.0089772493 -0.0049363449 0.061064612
0.011071972 -0.0049459622 0.061640296
0.012986872 -0.0045880186 0.061782986
0.015066953 -0.004847968 0.061677065
0.016981781 -0.0050405897 0.06114376
0.018945603 -0.0050686863 0.061106995
0.020519 -0.0049727419 0.060555421
-0.022445897 -0.0038486694 0.060063891
-0.021147814 -0.0036492371 0.060041063
-0.012553073 -0.0031171213 0.06057936
-0.011017519 -0.0029976531 0.061022162
-0.0091900462 -0.0028960507 0.061429687
-0.0075068129 -0.002171794 0.061949205
-0.0004046137 -0.0027418097 0.061797291
0.00089232047 -0.0028956376 0.061223619
0.0028854646 -0.0029974794 0.061094645
0.0051183668 -0.0029109789 0.060449157
0.0070719649 -0.0029326747 0.060922287
0.0088151256 -0.0030776758 0.060945328
0.010905106 -0.0030305502 0.061049554
0.013033695 -0.0030016915 0.061298028
0.014978088 -0.003038886 0.061118226
0.017023677 -0.0029763707 0.060919441
0.018936649 -0.0029979467 0.060948454
0.020325523 -0.0035701087 0.060236134
-0.012207879 -0.0015685011 0.060373377
-0.01092824 -0.0010270735 0.061030399
-0.0091325706 -0.00084200577 0.060919818
-0.0071119913 -0.00094491232 0.061575025
-0.0051051257 -0.00048946979 0.061767381
-0.0029593846 -0.00076701085 0.061807249
-0.00099975395 -0.0010176046 0.061402407
0.0010050144 -0.00087332248 0.060896762
0.0028687182 -0.0010001825 0.060768198
0.0048306659 -0.0018230509 0.060147274
0.0072271992 -0.0010936562 0.060461711
0.0091232676 -0.0011475341 0.061048985
