# .PCD v0.7 - Point Cloud Data file format
VERSION 0.7
FIELDS x y z
SIZE 4 4 4
TYPE F F F
COUNT 1 1 1
WIDTH 1263
HEIGHT 1
VIEWPOINT 0 0 0 1 0 0 0
POINTS 1263
DATA ascii
0.051006678 0.0089061428 -0.080893591
0.052538935 0.0090723746 -0.080366693
0.035486825 0.011027053 -0.080263838
0.037058454 0.010939361 -0.080775805
0.038898204 0.011038938 -0.081457198
0.040950272 0.010788999 -0.081588477
0.042607643 0.011256185 -0.081932671
0.047078252 0.011052605 -0.08183486
0.049183648 0.011052501 -0.081607886
0.05105596 0.010979053 -0.080879971
0.052614573 0.011073281 -0.080313139
0.035532366 0.0129801 -0.080295525
0.03691493 0.012984381 -0.080698907
0.038952544 0.012851036 -0.081415623
0.040849008 0.01302982 -0.081619412
0.042675637 0.013156776 -0.081938043
0.047021572 0.013098046 -0.081844248
0.049248278 0.013019259 -0.081526294
0.050926331 0.012849825 -0.080960892
0.052572712 0.013154715 -0.080334671
0.035645757 0.014948318 -0.080375805
0.037121143 0.014955157 -0.080745384
0.03879166 0.015079019 -0.081439331
0.04079942 0.015099131 -0.081552796
0.042645473 0.014956145 -0.081937119
0.047082707 0.014890949 -0.081837155
0.049050383 0.015116571 -0.081504762
0.051186986 0.014970196 -0.080860101
0.052628834 0.015125707 -0.080299869
0.03556519 0.016841279 -0.08032494
0.037047185 0.017054265 -0.080748938
0.039042849 0.016951272 -0.081463732
0.040926602 0.017075906 -0.081586093
0.042665705 0.017017422 -0.081942581
0.046924088 0.017027097 -0.081869587
0.049425099 0.017072005 -0.081487454
0.050923135 0.017091449 -0.080914415
0.052404154 0.016879024 -0.080447331
-0.018593274 0.019561356 -0.08051227
-0.016929122 0.019461209 -0.080926307
-0.014950078 0.019386381 -0.080895051
-0.01292395 0.019297227 -0.080867805
-0.01108442 0.01945859 -0.080962829
-0.009196138 0.019292483 -0.080734983
-0.0071359929 0.019392196 -0.0808504
-0.0050941803 0.019264398 -0.08090201
-0.003149248 0.019460835 -0.080784768
-0.0010011101 0.019394193 -0.080867693
0.0011629976 0.019412199 -0.080951996
0.0029763221 0.019398404 -0.080933623
0.0050599389 0.01936974 -0.080843784
0.0069920812 0.019431911 -0.080934659
0.0090115136 0.019345798 -0.080828167
0.011082299 0.019381002 -0.080879003
0.013116321 0.01942461 -0.080910817
0.014929979 0.019362114 -0.080945358
0.016879687 0.019384643 -0.080955967
0.018972877 0.019429239 -0.080898181
0.020913403 0.01934438 -0.080775499
0.023183689 0.019377923 -0.080921099
0.025024945 0.019348845 -0.080876388
0.02700288 0.019385241 -0.080870956
0.029230533 0.019457515 -0.080933936
0.03090517 0.019371172 -0.080897711
0.032942571 0.019411294 -0.080893807
0.035086822 0.019195585 -0.080912314
0.037078541 0.018873809 -0.080911323
0.038941924 0.01903116 -0.081458129
0.040908694 0.018951269 -0.081583515
0.042600237 0.019002633 -0.081937797
0.047043718 0.018985623 -0.081846282
0.04925913 0.019038288 -0.08146631
0.050927863 0.018916002 -0.081001155
0.052670348 0.01889367 -0.08028353
-0.018740194 0.021071946 -0.081009567
-0.01742667 0.020833248 -0.081720732
-0.015077775 0.020594697 -0.0817663
-0.012955215 0.020501241 -0.081661083
-0.011060992 0.020431068 -0.081660241
-0.0093837064 0.020543966 -0.081661224
-0.0071302797 0.020371448 -0.081607379
-0.0046684532 0.020513603 -0.081707112
-0.0030568319 0.02038295 -0.081615686
-0.0011031126 0.020497937 -0.0816269
0.0012545931 0.020462697 -0.08160542
0.0029618887 0.0204296 -0.08156959
0.005038186 0.020502351 -0.08171346
0.0069946907 0.020656157 -0.0817331
0.0091742268 0.020467026 -0.081654929
0.011225052 0.020505305 -0.081646658
0.012986531 0.020378394 -0.081627496
0.015197396 0.020509126 -0.081642017
0.017346 0.020416507 -0.081593208
0.018985815 0.020616353 -0.08172515
0.021322748 0.020643586 -0.081828974
0.022900404 0.020560978 -0.081711628
0.025188601 0.020517049 -0.081672743
0.026973674 0.020422392 -0.081669286
0.029279932 0.02057644 -0.081760734
0.030840423 0.020664884 -0.081744224
0.032844961 0.020491883 -0.081657574
0.034968778 0.020406591 -0.081563942
0.037110183 0.020889414 -0.080860123
0.038959011 0.020890983 -0.081362635
0.041151226 0.020996068 -0.081649318
0.042512201 0.02098774 -0.081927814
0.045839999 0.020859024 -0.08199615
0.047194246 0.021140605 -0.081824422
0.049202431 0.020927403 -0.081571743
0.051100615 0.020976786 -0.080786839
0.052517775 0.021013645 -0.080386013
-0.018747155 0.023069868 -0.080914579
-0.017234627 0.023477767 -0.081771046
-0.014898333 0.023621082 -0.081797905
-0.012813676 0.023420356 -0.08188808
-0.010681198 0.023647243 -0.081778549
-0.008788703 0.023560697 -0.081826575
-0.0071321512 0.023580283 -0.081817128
-0.0049508475 0.023568518 -0.081821069
-0.0031929521 0.023463028 -0.081877381
-0.00094806927 0.023543384 -0.081836462
0.0012008192 0.02357352 -0.081818685
0.0029432222 0.023515683 -0.081857227
0.0048056683 0.023537636 -0.081842117
0.0071296864 0.023642838 -0.081788294
0.0090203201 0.023620529 -0.081802197
0.010966823 0.023796374 -0.081695467
0.012974135 0.023560075 -0.08182779
0.015429959 0.023552213 -0.081833601
0.016806724 0.023535883 -0.081844345
0.019345794 0.023677643 -0.081766471
0.021074034 0.023694267 -0.081754193
0.022830475 0.023641691 -0.081784427
0.024969198 0.02366928 -0.081767544
0.027022809 0.023660541 -0.081773885
0.02905635 0.023652662 -0.081786647
0.031304453 0.023588872 -0.081812777
0.032972291 0.02356093 -0.081824638
0.034749035 0.023801666 -0.081683956
0.037118983 0.023266103 -0.08071398
0.038911406 0.023176793 -0.081309266
0.041049961 0.022931369 -0.081628196
0.042626038 0.022809966 -0.08194302
0.04583481 0.022613376 -0.08198081
0.047085825 0.023003599 -0.081802197
0.049264424 0.023113336 -0.081456341
0.050915103 0.02306632 -0.080833063
0.052538231 0.022569969 -0.080340505
-0.018605411 0.024552073 -0.080719814
-0.016931143 0.024783971 -0.081046999
-0.015184503 0.02481701 -0.080992036
-0.013025367 0.024758277 -0.08099518
-0.011049519 0.024830671 -0.08101017
-0.0089651644 0.024818324 -0.081081256
-0.007040841 0.024882246 -0.08096575
-0.0050572772 0.024848854 -0.080978438
-0.0029258833 0.024865728 -0.081003115
-0.0011661171 0.024804907 -0.081095457
0.0010743357 0.024891883 -0.081012301
0.003047772 0.024766598 -0.081051074
0.0051404503 0.024780093 -0.080987111
0.0070050107 0.02479298 -0.081084229
0.0089222984 0.024906164 -0.0808945
0.010897741 0.024767445 -0.081066303
0.013074599 0.024796007 -0.081078716
0.014931461 0.024856824 -0.080957651
0.016994547 0.024833111 -0.080920085
0.01910118 0.024903167 -0.08097972
0.020834208 0.024883987 -0.08096458
0.022862924 0.024732042 -0.081120744
0.024951657 0.02485748 -0.080919243
0.02714647 0.024814803 -0.081049636
0.02915729 0.02484782 -0.08098378
0.030979242 0.024848474 -0.080945373
0.03299943 0.024842516 -0.081015565
0.035181526 0.02488981 -0.081026189
0.037179813 0.025015524 -0.080869325
0.039010596 0.025051408 -0.081361406
0.040870473 0.025219254 -0.081545234
0.042948723 0.025200922 -0.081572026
0.045055784 0.025482578 -0.081418328
0.047030326 0.025247218 -0.081165798
0.048891112 0.024855727 -0.08097595
0.0505994 0.024542894 -0.08053606
0.035747711 0.026170505 -0.080199264
0.037314393 0.02679426 -0.080454595
0.039035954 0.026706258 -0.080809504
0.041145891 0.026597736 -0.080845922
0.043073788 0.026593098 -0.080890812
0.044870522 0.026533341 -0.080471084
0.046925403 0.026286626 -0.080470324
0.035384934 -0.028571308 -0.078479856
0.037053518 -0.028626397 -0.079058886
0.03901618 -0.028731085 -0.07885281
0.041142672 -0.028494185 -0.079065807
0.042847686 -0.028491247 -0.078669772
0.044770394 -0.028182467 -0.078999035
-0.020043835 -0.026012089 -0.078162789
-0.01858606 -0.026549099 -0.078808755
-0.017063158 -0.026566738 -0.079144962
-0.014223926 -0.026498759 -0.079910807
-0.013017403 -0.02646438 -0.079166882
-0.011010497 -0.026546177 -0.079077326
-0.0089622345 -0.026474359 -0.079030685
-0.0069301142 -0.026457103 -0.078958437
-0.0049999361 -0.026417354 -0.078855872
-0.0029382799 -0.026494309 -0.079058774
-0.00095833966 -0.026446531 -0.079028144
0.0010774035 -0.026491566 -0.079105757
0.0030572342 -0.026431363 -0.079091169
0.0050275214 -0.026631029 -0.078947656
0.0068930052 -0.026518682 -0.078928456
0.0090464428 -0.026475096 -0.078946635
0.010846729 -0.026462916 -0.079115376
0.013062282 -0.026486276 -0.079020604
0.015091397 -0.026428821 -0.079177648
0.016903747 -0.026489291 -0.078917958
0.019024262 -0.026446363 -0.078926027
0.02090531 -0.026422625 -0.078912869
0.023008876 -0.026553661 -0.079041518
0.024984116 -0.026433736 -0.07892067
0.027136933 -0.026480537 -0.078983955
0.028884413 -0.026481232 -0.078939036
0.031104729 -0.026435323 -0.078899458
0.033118494 -0.026740151 -0.078932337
0.035068225 -0.027146135 -0.079032011
0.036617111 -0.027245216 -0.079445757
0.03882084 -0.027968895 -0.079638645
0.0408802 -0.02793836 -0.079931751
0.043445367 -0.027774433 -0.079213522
0.044956792 -0.027552836 -0.079120323
0.046999156 -0.027299402 -0.079047941
0.049132165 -0.026899312 -0.079082146
0.051045068 -0.02647211 -0.078691132
0.052899871 -0.026164748 -0.078139342
-0.020186715 -0.024788817 -0.078506231
-0.019433213 -0.024983069 -0.07900849
0.033818997 -0.024957737 -0.078103773
0.035103429 -0.025032969 -0.078951977
0.036563776 -0.024993414 -0.07961008
0.049901363 -0.025955804 -0.079884514
0.051461805 -0.025462549 -0.079333328
0.052982941 -0.025130609 -0.07908003
0.054493099 -0.024465896 -0.07846652
-0.020238368 -0.023256661 -0.078417011
-0.019424785 -0.022936361 -0.079145662
0.033929761 -0.022954378 -0.078213625
0.035012718 -0.023121575 -0.078870431
0.036725156 -0.023015833 -0.079716697
0.053129032 -0.023064382 -0.07930202
0.054517623 -0.023123998 -0.078600407
-0.020238165 -0.021276824 -0.078386351
-0.01935349 -0.020968474 -0.079170689
-0.017176408 -0.020291483 -0.079396114
-0.012812994 -0.020394377 -0.078967653
-0.010846714 -0.020407198 -0.078947961
-0.0090782745 -0.020388488 -0.078819878
-0.0071737673 -0.020394608 -0.079305872
-0.005022238 -0.020390406 -0.079000846
-0.0028976223 -0.0203663 -0.07882987
-0.00083899632 -0.020390933 -0.078958467
0.0010290481 -0.020405916 -0.078950025
0.0029320044 -0.020377776 -0.078976333
0.0050489171 -0.020415252 -0.079024501
0.0069441171 -0.020425569 -0.079023018
0.0090092756 -0.02042906 -0.078834206
0.011129314 -0.020381436 -0.078940064
0.012894378 -0.020383792 -0.079194084
0.015242365 -0.02040079 -0.079042397
0.01720286 -0.02039445 -0.079110563
0.019178052 -0.020391624 -0.078828096
0.021138307 -0.020408204 -0.078667842
0.02315194 -0.020426646 -0.078893229
0.024913939 -0.020395909 -0.078669213
0.027066298 -0.02037677 -0.078648083
0.028694732 -0.02035672 -0.078722857
0.031181738 -0.020408824 -0.078951776
0.033010144 -0.020382714 -0.07898619
0.034954589 -0.020817919 -0.078984171
0.036512706 -0.021256674 -0.079568893
0.053306535 -0.02070855 -0.079382896
0.054648038 -0.02081118 -0.078588054
-0.020064298 -0.019484453 -0.07820344
-0.019049441 -0.019441783 -0.078469582
-0.017312959 -0.019650882 -0.078750215
-0.01273495 -0.019879876 -0.078925416
-0.010992284 -0.019876184 -0.07896737
-0.0090147862 -0.019885203 -0.078967243
-0.0071424362 -0.019878058 -0.079092897
-0.0047910097 -0.019883426 -0.078928255
-0.0029955192 -0.019870209 -0.078962542
-0.00097713794 -0.019885801 -0.079050988
0.0012113169 -0.019893415 -0.078976035
0.0029850709 -0.019883173 -0.079193711
0.0048048138 -0.019868199 -0.079073213
0.0071417214 -0.019877069 -0.079003178
0.0089984974 -0.019872297 -0.079201326
0.011067681 -0.019860849 -0.078992501
0.013030441 -0.019878522 -0.078943372
0.014823698 -0.019866876 -0.079182632
0.017220663 -0.01986059 -0.079158105
0.018954782 -0.019889841 -0.07900463
0.02079352 -0.019879425 -0.078875326
0.022923319 -0.019872809 -0.078989103
0.025064884 -0.019897945 -0.0787815
0.027010128 -0.01990423 -0.078723274
0.0291795 -0.019868311 -0.079117559
0.031099133 -0.019798391 -0.079145439
0.033085551 -0.019289782 -0.078798234
0.034952287 -0.018949764 -0.079071201
0.036576815 -0.018910302 -0.079638585
0.051990096 -0.019173304 -0.07999105
0.053096779 -0.019014111 -0.079401575
0.054540135 -0.018946081 -0.078503095
0.033664789 -0.016848503 -0.078297183
0.0349111 -0.01707527 -0.079011761
0.036632124 -0.016935259 -0.079642527
0.053237509 -0.017102256 -0.079424046
0.054555461 -0.016854893 -0.078664847
0.033838123 -0.015085105 -0.078431062
0.034927905 -0.014978157 -0.079154044
0.036657341 -0.014881526 -0.079759263
0.051989432 -0.015574991 -0.079987079
0.053184316 -0.015039582 -0.079469182
0.054605231 -0.015079019 -0.078532152
0.033938993 -0.013110098 -0.078197807
0.035039853 -0.01313549 -0.079166397
0.036609951 -0.012930777 -0.07962472
0.051982723 -0.012095563 -0.07998684
0.053281102 -0.012890194 -0.079242766
0.054594908 -0.012917241 -0.078557096
0.033835143 -0.01118535 -0.078104794
0.034944795 -0.010980699 -0.07913737
0.036733728 -0.010866617 -0.079715699
0.05306061 -0.010994419 -0.079358272
0.05472653 -0.010821328 -0.078559257
0.033852197 -0.0088945385 -0.0783014
0.03493125 -0.0090098558 -0.079125062
0.036520477 -0.0090911342 -0.079624735
0.053243581 -0.009047281 -0.079375826
0.054526519 -0.0090564443 -0.078575224
0.033734251 -0.0069915154 -0.078408167
0.034958664 -0.0070435554 -0.079098731
0.036529314 -0.007105439 -0.079613157
0.051961981 -0.0078815706 -0.079995066
0.053031348 -0.0069737853 -0.07937146
0.05459195 -0.0071783084 -0.078644373
-0.020089976 -0.0042890105 -0.078231514
-0.018693103 -0.0045245597 -0.078558549
-0.017184841 -0.0041779527 -0.078850605
-0.01406771 -0.0040233172 -0.079769045
-0.012949036 -0.0040455018 -0.079243973
-0.010943539 -0.0040436825 -0.07918413
-0.0090565737 -0.0040396666 -0.079333268
-0.0070004743 -0.0040418706 -0.079326846
-0.0050164936 -0.0040452555 -0.079082891
-0.0031078423 -0.0040426268 -0.0792614
-0.0011155858 -0.0040440899 -0.079081677
0.000796479 -0.004054442 -0.079354495
0.0027131333 -0.0040478115 -0.079196885
0.0051252046 -0.0040455326 -0.079117678
0.0069064074 -0.0040555843 -0.079173625
0.0090460535 -0.0040506134 -0.079143748
0.010891162 -0.0040420904 -0.079149902
0.012870137 -0.0040409835 -0.079302125
0.015168569 -0.004049933 -0.079216473
0.01692646 -0.0040453812 -0.079190187
0.018876661 -0.0040465244 -0.07923191
0.020918895 -0.0040404466 -0.079420343
0.02289639 -0.0040464434 -0.079209633
0.024921736 -0.0040479423 -0.079222187
0.027175682 -0.0040465887 -0.079136178
0.029119711 -0.0040487731 -0.079137921
0.031174013 -0.004089884 -0.07888037
0.033097923 -0.0046290322 -0.078766286
0.034996234 -0.0049936436 -0.079150602
0.036560334 -0.0052873227 -0.079601422
0.053239807 -0.0050497893 -0.079308733
0.054649215 -0.0049815862 -0.078516483
-0.020251317 -0.0027191779 -0.078349844
-0.019195979 -0.003187736 -0.07917425
-0.017186845 -0.0037166376 -0.079017743
-0.012944486 -0.0035825295 -0.079125084
-0.010962779 -0.0035640667 -0.078772441
-0.008934103 -0.0036519102 -0.078854702
-0.006926232 -0.0035480242 -0.078727171
-0.005093826 -0.0035420002 -0.078799121
-0.0031568645 -0.0035689538 -0.079067372
-0.0010044203 -0.00364456 -0.078471854
0.0011717761 -0.0035716612 -0.079019509
0.0031014381 -0.0036153598 -0.078812093
0.005119761 -0.0035770892 -0.078935042
0.0069733583 -0.0036130075 -0.078760728
0.0092185549 -0.0035438761 -0.078775942
0.011104913 -0.003550163 -0.078982137
0.012996646 -0.0035820117 -0.078821585
0.015000022 -0.0035608856 -0.078798912
0.017032556 -0.0035988968 -0.078829914
0.019102944 -0.0035759897 -0.078850962
0.021020539 -0.0036091355 -0.078973904
0.023085529 -0.0035654088 -0.079018421
0.024888793 -0.0036370195 -0.078777388
0.026881177 -0.0035421932 -0.079137392
0.028954376 -0.003540765 -0.079027452
0.030781694 -0.0035854613 -0.078943543
0.032908913 -0.0036873899 -0.07928811
0.035323005 -0.0033790539 -0.078879558
0.037034631 -0.0030414942 -0.079088263
0.039042018 -0.0026048699 -0.07909251
0.04100528 -0.0025631473 -0.079523437
0.04308334 -0.0024345403 -0.079725407
0.045206379 -0.0024246071 -0.079785235
0.046876237 -0.0024345117 -0.07964883
0.049135521 -0.0025666507 -0.079346269
0.051023047 -0.0027949139 -0.079202883
0.05289356 -0.0031668132 -0.079022512
0.054644093 -0.0034407421 -0.078385733
-0.020227754 -0.0010313854 -0.078440018
-0.019511709 -0.0010572369 -0.079175718
0.03392043 -0.00041318365 -0.078191549
0.035180472 -0.00048912753 -0.078754202
0.036908496 -0.0005953802 -0.079138033
0.038864251 -0.00096524047 -0.079184622
0.041008916 -0.0010524961 -0.079513133
0.043154303 -0.0010353082 -0.079703823
0.045013364 -0.0013026441 -0.079718098
0.047121048 -0.00091438927 -0.079625733
0.04906119 -0.001037075 -0.079289071
0.050908111 -0.00083261525 -0.078984395
0.053133197 -0.00056698901 -0.07911668
0.054488648 -0.00057053438 -0.078610726
-0.020246871 0.00058527221 -0.078399807
-0.019533444 0.0010730395 -0.079179272
0.0353586 0.0016338655 -0.078393355
0.037084147 0.0013769756 -0.078722976
0.038880888 0.0010643993 -0.078866079
0.040805262 0.00095132226 -0.07946489
0.043005668 0.00075618603 -0.079614721
0.045025535 0.00059499376 -0.079661556
0.0470425 0.00077038369 -0.079619162
0.048989858 0.00097389414 -0.079312682
0.050841697 0.00097564643 -0.078663692
0.052858852 0.0015517201 -0.07883589
0.054524183 0.0019545089 -0.078363061
-0.02023359 0.0025599801 -0.078320935
-0.019017495 0.0028848832 -0.078854196
-0.01719624 0.0027571926 -0.079101689
-0.01407224 0.0024475602 -0.079643957
-0.013081282 0.0026662666 -0.079227887
-0.011102782 0.0025693858 -0.079037234
-0.008908391 0.0025608114 -0.078925557
-0.00693919 0.0025366207 -0.078920491
-0.0050787544 0.0025954589 -0.07900992
-0.0028584183 0.0025796788 -0.078969471
-0.00085028575 0.0025505014 -0.07916645
0.00099421525 0.0026118925 -0.079147629
0.0029578737 0.0025280772 -0.078831047
0.004972314 0.0026145 -0.07913211
0.0069178017 0.0026646827 -0.079147555
0.0090893507 0.0025913999 -0.078995973
0.011099095 0.002556989 -0.078945391
0.012959389 0.002554283 -0.079090104
0.014926285 0.002523887 -0.07909894
0.017035766 0.0025109788 -0.078947723
0.018909222 0.0026036454 -0.079008952
0.021050809 0.002646815 -0.078919619
0.022978162 0.0025859424 -0.079057299
0.025093045 0.0026330873 -0.079155058
0.026996188 0.0026270382 -0.078943714
0.029012624 0.0026767233 -0.078898855
0.031019097 0.0026297325 -0.078900069
0.033103019 0.003036557 -0.078980021
0.035037737 0.003068587 -0.079139434
0.036905769 0.0025172194 -0.079489581
0.038385242 0.0020807651 -0.079672694
0.049829207 0.0020382721 -0.079910994
0.051332265 0.0021379157 -0.079460777
0.052992683 0.0027689356 -0.079296671
0.054649506 0.003022552 -0.078388482
0.033564221 0.0049446491 -0.078417346
0.035025951 0.0050241519 -0.079172537
0.036482159 0.0050302902 -0.079676434
0.053297538 0.0050416212 -0.079422764
0.054622218 0.004971541 -0.078546293
0.033689801 0.0066594528 -0.078403704
0.035080384 0.0068680295 -0.079149336
0.036614206 0.0070492099 -0.079631515
0.053281695 0.0070654452 -0.079318874
0.054581504 0.006864591 -0.078588977
0.033889361 0.009285883 -0.078161255
0.03513626 0.0089809503 -0.079204693
0.036540512 0.009073738 -0.079615876
0.053322583 0.0090459576 -0.07926973
0.054559007 0.0089189047 -0.078564875
-0.030714238 0.011534126 -0.078448012
-0.028896878 0.011434568 -0.078371122
-0.027207838 0.011540859 -0.078713596
0.033773802 0.010906127 -0.078040838
0.035056662 0.01094329 -0.079156771
0.036510862 0.010965093 -0.07955493
0.053265862 0.010972085 -0.079289228
0.054581866 0.011219283 -0.078474715
-0.03061639 0.012772691 -0.078628056
-0.028886113 0.013066611 -0.078737676
-0.02695681 0.013015226 -0.078792416
0.033844989 0.01319112 -0.078348182
0.034871209 0.013026012 -0.079061508
0.036264472 0.012842395 -0.079372734
0.051968291 0.012619628 -0.079997465
0.053103998 0.013172655 -0.079410046
0.054603726 0.012946852 -0.078574494
-0.030825322 0.015068985 -0.078555755
-0.028803857 0.014954825 -0.078644618
-0.027094938 0.01503059 -0.078832731
0.033803947 0.014954085 -0.078535952
0.035099629 0.014996474 -0.079069555
0.036666907 0.015024104 -0.079738043
0.053246398 0.014972708 -0.079281032
0.054547139 0.015166169 -0.078682758
-0.030861009 0.016964402 -0.078525081
-0.029052312 0.017018858 -0.07861039
-0.027079627 0.016929893 -0.078929901
-0.019207256 0.017865978 -0.078274809
-0.01797837 0.017795885 -0.078013167
0.033449095 0.017127374 -0.078361534
0.034930378 0.016941587 -0.079122595
0.036507346 0.01689156 -0.079590544
0.051988564 0.017925899 -0.07999184
0.053227656 0.016953012 -0.07943143
0.054634016 0.017024681 -0.078479223
-0.030618301 0.018332347 -0.078533925
-0.029088818 0.018359369 -0.078348249
-0.027351106 0.018244976 -0.078760959
-0.020213325 0.019202039 -0.078348368
-0.019082662 0.01887894 -0.078870408
-0.017272193 0.018764673 -0.079023868
-0.014192356 0.019045291 -0.079827294
-0.012901998 0.019040613 -0.079106584
-0.011065694 0.018981917 -0.079039745
-0.0088589136 0.018945154 -0.079071708
-0.0069608702 0.019008867 -0.079158112
-0.0049763205 0.019029321 -0.078969494
-0.0030581225 0.019050743 -0.079006061
-0.0011327651 0.018982606 -0.079159454
0.0010655206 0.018940307 -0.078841105
0.0030531378 0.018980341 -0.079065695
0.004936392 0.019058464 -0.078984931
0.0070563368 0.019022305 -0.078968503
0.0089490134 0.019063862 -0.078970991
0.010961556 0.018994847 -0.079203643
0.012834894 0.018962234 -0.078925826
0.01493956 0.019002743 -0.079074271
0.017140273 0.018996531 -0.07907033
0.018998832 0.019015901 -0.078904219
0.021008905 0.019043816 -0.0790141
0.022987241 0.018996853 -0.079069041
0.024858003 0.018958369 -0.079048298
0.026966542 0.019013351 -0.07895343
0.028987482 0.019001773 -0.079064637
0.031135695 0.018958995 -0.078911304
0.033048809 0.018788431 -0.078976162
0.034998536 0.018968575 -0.079023473
0.036735587 0.018798249 -0.079717912
0.053077377 0.019177103 -0.079292752
0.054591943 0.018879866 -0.078566216
-0.020203231 0.02066071 -0.078491293
-0.019535149 0.020963302 -0.078988522
0.033860963 0.020910781 -0.078142568
0.035184439 0.02117048 -0.079010576
0.036627229 0.020976266 -0.079710394
0.053171616 0.020934058 -0.0794058
0.054590527 0.021109225 -0.078662135
-0.020243302 0.02278438 -0.078406855
-0.019637886 0.023001207 -0.079110585
0.033826876 0.022852825 -0.078113087
0.035184689 0.023054587 -0.079026535
0.036542516 0.023077928 -0.07959757
0.051811635 0.023409598 -0.079822689
0.053118885 0.02298625 -0.07916294
0.054589 0.022712272 -0.078401178
-0.02020986 0.024318211 -0.078367487
-0.019008337 0.024882926 -0.078979202
-0.017112324 0.025345514 -0.079081066
-0.014041178 0.025603896 -0.079926088
-0.012675507 0.025361249 -0.0791829
-0.010892617 0.025365667 -0.07906425
-0.0089365961 0.02536054 -0.07907556
-0.0071343756 0.025338538 -0.079030484
-0.0049577248 0.025344195 -0.079109974
-0.0031987138 0.025342045 -0.078927755
-0.001002342 0.025363334 -0.079034455
0.00092377554 0.025342669 -0.079080284
0.002902596 0.025275683 -0.079000078
0.0048661432 0.02531502 -0.078994863
0.0071883667 0.025345223 -0.078833148
0.009033544 0.025356175 -0.078962624
0.011005882 0.025336532 -0.078918435
0.012851641 0.025343528 -0.079045266
0.01509918 0.025264477 -0.078937195
0.017054379 0.025353193 -0.07906884
0.01902144 0.025311368 -0.078975953
0.020979308 0.025330791 -0.079017028
0.023019485 0.025332192 -0.07899721
0.024982069 0.025347069 -0.079059571
0.02701701 0.025291065 -0.078892402
0.028850833 0.025365336 -0.078968689
0.031035442 0.02529468 -0.078880318
0.032897152 0.025355561 -0.079057008
0.035034146 0.025075957 -0.078997895
0.036798324 0.025469735 -0.07965342
0.047208175 0.025890874 -0.078794435
0.049124967 0.025542054 -0.07889083
0.050988585 0.025034875 -0.079110093
0.052663714 0.024466915 -0.078893848
0.054131359 0.024232648 -0.078068838
0.033614717 0.026443603 -0.078265809
0.035205632 0.026790762 -0.078698687
0.037005249 0.027223907 -0.079167768
0.038985819 0.027358126 -0.079088271
0.040932588 0.027492264 -0.079106174
0.042973798 0.027044248 -0.079086371
0.044947069 0.02662739 -0.079191379
0.046956517 0.026486764 -0.078889631
0.048830539 0.026175104 -0.078812033
0.035667777 0.028117379 -0.078174934
0.037299898 0.028093206 -0.078217424
0.038671777 0.028076394 -0.0784733
0.033539269 -0.02829572 -0.076967686
0.034919437 -0.028636951 -0.077140704
0.037011568 -0.02900769 -0.076938249
0.03905829 -0.028943669 -0.07705421
0.040980082 -0.028713532 -0.077091604
0.04281057 -0.028495312 -0.076903433
0.045020778 -0.028145321 -0.076718651
-0.020438302 -0.026257688 -0.07636898
-0.019170815 -0.026443262 -0.076994978
-0.016941929 -0.02662964 -0.076985501
-0.015428646 -0.026511787 -0.076741911
-0.012360289 -0.026254021 -0.07773874
-0.010764593 -0.026406998 -0.077758677
-0.0091754002 -0.02630168 -0.077628031
-0.0065931324 -0.026288901 -0.077698104
-0.0048339092 -0.026369452 -0.077686481
-0.0030436004 -0.026272301 -0.077653512
-0.00089877931 -0.0264201 -0.077740885
0.0010301076 -0.026297331 -0.077697873
0.0031524631 -0.026257474 -0.077691361
0.0048537818 -0.026378335 -0.077774778
0.0067808251 -0.026242062 -0.07776355
0.0089219557 -0.026314918 -0.077683911
0.011084863 -0.026348561 -0.077718861
0.013005168 -0.026355138 -0.077744246
0.015147449 -0.026204158 -0.077702731
0.016869362 -0.026458908 -0.077715024
0.018972415 -0.026349938 -0.077741593
0.02107208 -0.026301151 -0.077659279
0.022947138 -0.026236998 -0.077707916
0.025165098 -0.026298104 -0.077660307
0.02712781 -0.026379684 -0.077738054
0.02878534 -0.02630892 -0.077678591
0.031135784 -0.026327241 -0.07769116
0.033226509 -0.027044069 -0.077099867
0.034519326 -0.027107434 -0.077514932
0.043222323 -0.027871856 -0.07702329
0.045102328 -0.027552959 -0.077262968
0.046910003 -0.02749694 -0.077124514
0.048862889 -0.026989026 -0.076908402
0.050946016 -0.026638852 -0.077041067
0.05288218 -0.026420824 -0.077102005
0.054159205 -0.026108572 -0.07631927
-0.020675519 -0.02488739 -0.076870337
-0.019867208 -0.025322203 -0.077819899
-0.011792289 -0.025939701 -0.077769391
-0.0094190901 -0.025957942 -0.077833459
-0.0069428785 -0.025960231 -0.077839449
-0.0050631724 -0.025940577 -0.077808782
-0.0023453152 -0.025947127 -0.07782305
-0.0010537666 -0.025981298 -0.077797972
0.00088319986 -0.025971677 -0.07784082
0.0030294431 -0.025964009 -0.077755883
0.0052186907 -0.025966605 -0.07783331
0.0070665441 -0.025947416 -0.077785112
0.0089912592 -0.02594639 -0.077821448
0.011304654 -0.02594596 -0.077804558
0.01303754 -0.025961712 -0.077826366
0.014515518 -0.025970798 -0.077752106
0.017324792 -0.025970735 -0.077792481
0.018685753 -0.025946459 -0.07782159
0.020720618 -0.025967855 -0.077815078
0.023135604 -0.025963953 -0.077806465
0.024664454 -0.02595434 -0.077761248
0.027302507 -0.025967704 -0.077842668
0.028503567 -0.025956625 -0.07782957
0.030729832 -0.02596844 -0.077797294
0.033231176 -0.024980858 -0.076898895
0.03421098 -0.024783928 -0.077593498
0.053031381 -0.025697345 -0.077296838
0.05496414 -0.02482512 -0.077084929
0.056225862 -0.024214482 -0.076533839
-0.020772817 -0.02307009 -0.076784603
-0.019929992 -0.022828529 -0.07784307
0.033141073 -0.023085658 -0.07683254
0.034303244 -0.022864847 -0.077689521
0.055520236 -0.023038538 -0.077051327
0.056340192 -0.022979574 -0.076660812
-0.020580949 -0.021107089 -0.077068523
-0.019925648 -0.02109036 -0.07783404
-0.01239499 -0.020405056 -0.077807508
-0.010857689 -0.020413546 -0.077720381
-0.0087500401 -0.020412 -0.07775528
-0.0069811232 -0.020318119 -0.077731743
-0.0049483734 -0.020375149 -0.077742651
-0.003267678 -0.020422501 -0.07774096
-0.00095514231 -0.020432867 -0.077700816
0.00085638522 -0.020334862 -0.077717185
0.0032298604 -0.020386182 -0.077683888
0.0052234256 -0.020355202 -0.077708565
0.0069250613 -0.020360991 -0.077713601
0.0091321031 -0.020385358 -0.077727363
0.011292421 -0.020304238 -0.077806495
0.013026262 -0.020396324 -0.077723324
0.014981778 -0.020444233 -0.077718504
0.017029371 -0.020281188 -0.077725753
0.018785978 -0.020430151 -0.077809952
0.020960446 -0.020407921 -0.077717394
0.022887047 -0.020440932 -0.077731408
0.025016773 -0.020314641 -0.077748708
0.026940214 -0.020372869 -0.07772471
0.028834613 -0.0204242 -0.077707238
0.031085648 -0.020432701 -0.07772322
0.033042982 -0.020775879 -0.076959886
0.034277469 -0.021062691 -0.077661142
0.055384174 -0.020942979 -0.077355482
0.056427956 -0.020886352 -0.076550595
-0.020652318 -0.019223135 -0.076827765
-0.018947566 -0.018642051 -0.077431776
-0.01706573 -0.018890334 -0.076976433
-0.015487424 -0.019359011 -0.076769374
0.031518362 -0.019736176 -0.077611499
0.032926854 -0.019063814 -0.077087313
0.034285683 -0.018799847 -0.077663198
0.055529937 -0.019080106 -0.077313401
0.0563832 -0.018901173 -0.076514795
-0.020565737 -0.017109552 -0.076326393
-0.018958122 -0.01731796 -0.076499149
-0.017286256 -0.017733803 -0.076329529
0.033109147 -0.017036673 -0.076901056
0.034358479 -0.016976699 -0.077728145
0.05545247 -0.016884116 -0.077465728
0.056428466 -0.017100949 -0.076567829
0.033062454 -0.015021235 -0.076914258
0.034351524 -0.015167128 -0.077717476
0.055423599 -0.014972157 -0.077495188
0.056315899 -0.014893761 -0.076801911
0.033182584 -0.012964525 -0.07693781
0.034376331 -0.013166793 -0.07774552
0.0553945 -0.013047892 -0.077295154
0.056420755 -0.013018072 -0.076553091
0.03306349 -0.010989968 -0.07680814
0.034385569 -0.010870855 -0.077764735
0.055404637 -0.010964797 -0.077347666
0.05636736 -0.010863827 -0.076633595
-0.020437902 -0.0082042497 -0.076043919
0.033009298 -0.0089105908 -0.076835863
0.034271725 -0.0093219364 -0.077654742
0.055380788 -0.0088662906 -0.077429399
0.056372527 -0.0090474244 -0.076609127
-0.020388676 -0.0068143858 -0.076478802
-0.019156436 -0.0067256377 -0.076519825
-0.017373256 -0.0062664985 -0.076273881
0.033173904 -0.0069848155 -0.077138595
0.034338254 -0.0070002163 -0.077726223
0.055446226 -0.0069784159 -0.077218242
0.056376088 -0.0068315524 -0.076634198
-0.020708632 -0.0050591263 -0.076635554
-0.01899224 -0.0053915931 -0.077348061
-0.017011784 -0.005006318 -0.077000245
-0.015262309 -0.0044860099 -0.07657031
0.031614307 -0.0042155711 -0.077686056
0.032988537 -0.0051540779 -0.077175625
0.034341145 -0.0048949467 -0.077731714
0.055444337 -0.0052212593 -0.077362999
0.056351028 -0.0053069224 -0.076662354
-0.020753257 -0.0029373725 -0.076860078
-0.019932162 -0.0026429442 -0.077837862
-0.016391961 -0.0039797411 -0.077818096
-0.012333198 -0.003462103 -0.07772731
-0.010985943 -0.0034982488 -0.077712618
-0.0090715531 -0.0035074647 -0.077740386
-0.0069473796 -0.0034952152 -0.077718444
-0.0049543045 -0.0035363147 -0.07778129
-0.00311685 -0.003505345 -0.077668414
-0.00095919805 -0.0035013475 -0.077712469
0.0010458874 -0.0034781573 -0.077723056
0.0028082717 -0.0035906497 -0.077728033
0.0050145276 -0.0035676199 -0.077646367
0.0070388201 -0.0034914378 -0.077734374
0.0091374731 -0.0034011612 -0.077781968
0.011210453 -0.0034763764 -0.077722982
0.012992792 -0.0035636933 -0.077851221
0.01544449 -0.0035202114 -0.077711612
0.017039074 -0.0034988751 -0.077714413
0.018823301 -0.003545559 -0.077702433
0.020966472 -0.0033906749 -0.077833295
0.02280909 -0.0034942382 -0.077716909
0.024649909 -0.0034830007 -0.077800788
0.026984664 -0.0034615437 -0.077742733
0.02904292 -0.0034877651 -0.077739261
0.031191105 -0.0037682452 -0.07762932
0.033544321 -0.0032938945 -0.07675945
0.034868505 -0.0029132848 -0.077060096
0.036706582 -0.0024650244 -0.077109054
0.038137119 -0.0021966398 -0.077808015
0.051445376 -0.0023801615 -0.077602573
0.053147513 -0.0026362112 -0.07710243
0.055116177 -0.0032152005 -0.076995783
0.056351397 -0.003364292 -0.076416045
-0.020727875 -0.0010193482 -0.07690499
-0.019921936 -0.0015470372 -0.077859432
0.033237323 -0.00056954077 -0.076883011
0.03504888 -0.00068847806 -0.077027641
0.036753729 -0.00096592563 -0.07722377
0.038227893 -0.0015611108 -0.077873662
0.051433582 -0.0013038813 -0.07766401
0.053021949 -0.00083775737 -0.077171698
0.055035628 -0.00066284032 -0.077005483
0.056493659 -0.000493069 -0.076367222
-0.020716675 0.001013877 -0.077010468
-0.019909631 0.001371966 -0.077885389
0.033444691 0.0017499988 -0.076674841
0.035270933 0.0011060517 -0.07685186
0.036851771 0.00097373448 -0.077237569
0.038333554 0.00036540578 -0.07788381
0.051438332 0.00075318641 -0.077547498
0.052936733 0.0010563354 -0.07702373
0.054986082 0.0015771384 -0.076831236
0.056026299 0.0018197433 -0.076437622
-0.020608408 0.0029366193 -0.076841764
-0.018998135 0.0033038685 -0.077721983
-0.01678513 0.0034154593 -0.077400714
-0.015226942 0.0033809072 -0.076573029
-0.012504424 0.0024259344 -0.077849701
-0.0111574 0.0024584692 -0.077748813
-0.0087915929 0.0023928254 -0.077764347
-0.0069555994 0.0023305556 -0.077761799
-0.0046616425 0.0023500398 -0.077728629
-0.0028642111 0.0024221379 -0.07769952
-0.00099836453 0.0024794559 -0.077739388
0.0010030186 0.0024196059 -0.077678248
0.0028172634 0.0023392811 -0.077773899
0.0050932048 0.0024074514 -0.07779596
0.0068695089 0.0023132442 -0.077709563
0.00895161 0.0023817935 -0.077695534
0.011114339 0.0023178959 -0.077815026
0.013210057 0.0022926982 -0.077774256
0.014997748 0.0024058155 -0.077735506
0.017174717 0.0023753808 -0.077697888
0.019061113 0.0023871711 -0.07779333
0.020761468 0.00228065 -0.077789642
0.023006417 0.0024140568 -0.077755496
0.024684835 0.0023344883 -0.077738382
0.026848055 0.0022614172 -0.077756099
0.028956443 0.0023073624 -0.077736944
0.031227151 0.0027532787 -0.077743709
0.033115201 0.0030345495 -0.077138536
0.03439809 0.0026529822 -0.077284671
0.036121208 0.0020040181 -0.077736035
0.053306244 0.002035985 -0.077666812
0.055096999 0.0026896687 -0.077136688
0.056388121 0.0030573593 -0.076663651
-0.020535044 0.0048326356 -0.07662978
-0.018974897 0.005035982 -0.076856218
-0.017132767 0.0044839345 -0.076586165
-0.015345525 0.0040989816 -0.076141119
0.033015464 0.0048892284 -0.07702788
0.034297179 0.0046948288 -0.077687263
0.055375852 0.0048649972 -0.077408679
0.056503281 0.0049164272 -0.076477632
-0.034882065 0.0078687482 -0.076160222
-0.020483335 0.0068172514 -0.076095365
-0.01932022 0.00642337 -0.07619749
0.0331508 0.0071732244 -0.076919749
0.034332797 0.0066658012 -0.077719942
0.055375174 0.0070588789 -0.077244729
0.056335602 0.0068417685 -0.076767795
-0.034874476 0.0083879605 -0.076184101
-0.03306758 0.0088867033 -0.076385729
-0.031427063 0.009572736 -0.076653726
0.033085834 0.0089037577 -0.076828793
0.034291133 0.0086596413 -0.077673264
0.055387724 0.0089293774 -0.077324338
0.056516938 0.0090758363 -0.076559566
-0.031381879 0.011105307 -0.076914042
-0.029798185 0.011400734 -0.077962048
0.033211146 0.010843764 -0.076879807
0.03440658 0.011004693 -0.077779695
0.055297874 0.010920003 -0.077331625
0.056399949 0.010946993 -0.076439865
-0.031130316 0.012933639 -0.077048294
-0.029765576 0.013031049 -0.077967167
0.033237625 0.012850227 -0.077022202
0.034191057 0.012928613 -0.077561386
0.055410217 0.012863066 -0.077258438
0.056471508 0.013051271 -0.076473489
-0.031232594 0.014892001 -0.077095293
-0.029889708 0.015114745 -0.077947676
-0.020456357 0.015273982 -0.076212578
-0.018894715 0.015589124 -0.076135896
0.033204161 0.015067291 -0.077001631
0.034274966 0.014628205 -0.077643111
0.055272236 0.015023453 -0.077454321
0.056437183 0.015042892 -0.076610573
-0.031288039 0.016953964 -0.076965183
-0.029764622 0.01713418 -0.077967323
-0.020703472 0.01701973 -0.076637924
-0.019075856 0.016950047 -0.077074528
-0.017119937 0.017272081 -0.076707773
-0.015536529 0.017692503 -0.076569252
0.033037223 0.016990688 -0.077201396
0.034331199 0.017173173 -0.077706195
0.055199996 0.0170755 -0.077516422
0.056388695 0.01708857 -0.076518863
-0.032230295 0.019928811 -0.07664305
-0.031399593 0.018721452 -0.076808333
-0.020679209 0.019117499 -0.077023946
-0.019370826 0.018667802 -0.077803582
-0.016757224 0.018340819 -0.077413455
-0.015188161 0.018392604 -0.076611288
-0.012214556 0.019003434 -0.077819392
-0.01083635 0.019162523 -0.077680461
-0.008991804 0.019237403 -0.077823021
-0.0070295646 0.019241659 -0.077690512
-0.0047764792 0.019189306 -0.07770171
-0.0028990693 0.019195011 -0.077704251
-0.0011751751 0.019208035 -0.077750809
0.00084387779 0.019232713 -0.077722266
0.0031526079 0.019134246 -0.077742718
0.0051557804 0.019142171 -0.077668346
0.0068901614 0.019395038 -0.07783255
0.0090510072 0.019256065 -0.077727787
0.011066045 0.019245168 -0.077704594
0.0128634 0.019285189 -0.077750996
0.014877456 0.019289663 -0.07774131
0.016977562 0.019303396 -0.077667482
0.018934313 0.019311553 -0.07775005
0.021221422 0.019206535 -0.077720642
0.022930205 0.019265363 -0.077768758
0.024750324 0.019135168 -0.077717625
0.02674357 0.019315794 -0.077729598
0.028930917 0.019203449 -0.077729851
0.031122304 0.018980557 -0.077711739
0.033083651 0.01885101 -0.0770787
0.034399979 0.01900667 -0.077780671
0.055349819 0.019133691 -0.077313267
0.056583356 0.018939015 -0.076427624
-0.034687392 0.021534374 -0.076204397
-0.032937359 0.020828908 -0.076437481
-0.031616192 0.020313242 -0.076551326
-0.020693637 0.021002783 -0.076937683
-0.019892314 0.020921215 -0.07792218
0.033119436 0.021148089 -0.07686393
0.034245633 0.021111598 -0.07762979
0.055383451 0.020947454 -0.077347539
0.056288671 0.021014104 -0.07667774
-0.035430498 0.022266485 -0.076025285
-0.020671139 0.023041198 -0.076858297
-0.019918613 0.022988711 -0.077867389
0.033205867 0.022932844 -0.076910436
0.03432145 0.023251664 -0.077711426
0.053681716 0.02383757 -0.077831082
0.055221807 0.023103412 -0.07703156
0.056293037 0.023067361 -0.076404512
-0.020588124 0.024664421 -0.076751806
-0.019151947 0.02526008 -0.077071913
-0.016942667 0.025382286 -0.077043459
-0.015419862 0.025520595 -0.076489083
-0.012383476 0.025129607 -0.077832468
-0.01112851 0.02515606 -0.077682912
-0.0090644499 0.025150739 -0.077712007
-0.0071199122 0.025069349 -0.077716395
-0.0050492533 0.025029417 -0.077765621
-0.0029881047 0.025256326 -0.077725857
-0.0012611628 0.025000393 -0.07769613
0.0011380966 0.02504223 -0.077754088
0.0030458327 0.025081865 -0.077699743
0.00489659 0.025266821 -0.077793181
0.0069869417 0.025147891 -0.077698007
0.0091103278 0.02495552 -0.077825435
0.010993666 0.025179982 -0.077724218
0.012940277 0.025189349 -0.077766858
0.015271612 0.02509751 -0.077757619
0.016884955 0.025112536 -0.077753179
0.019041881 0.025130026 -0.077709004
0.021012858 0.02512821 -0.077662587
0.02303691 0.025070369 -0.077730283
0.024988068 0.025073277 -0.077717409
0.026830878 0.025205949 -0.077779815
0.028965335 0.025092361 -0.077723265
0.030950097 0.025189849 -0.077751793
0.033089731 0.025012236 -0.077180251
0.03436707 0.025144979 -0.077624142
0.047244743 0.025896719 -0.077198543
0.049099643 0.025543062 -0.076985717
0.050963406 0.025523519 -0.07696417
0.052891288 0.024920337 -0.076984309
0.054716758 0.024288248 -0.076877438
0.03349255 0.026784826 -0.076947957
0.034820225 0.027232012 -0.077151008
0.037059199 0.027595436 -0.076965176
0.039081946 0.027541287 -0.076894455
0.040996604 0.027467957 -0.077165522
0.043023843 0.027079949 -0.07697621
0.044936851 0.026634721 -0.076992996
0.046825547 0.026505489 -0.077082895
0.048976522 0.026183499 -0.077162705
0.035198722 0.028071085 -0.077234417
0.037130959 0.028223252 -0.076925859
0.03910356 0.028177725 -0.077130154
0.040074769 0.028014874 -0.07674107
0.031789832 -0.028047115 -0.074307315
0.033287384 -0.028564109 -0.074890815
0.034951665 -0.028952869 -0.075073756
0.036935035 -0.029215461 -0.075009786
0.039033737 -0.028987113 -0.074940629
0.041160345 -0.028574426 -0.074947193
0.042794865 -0.028388686 -0.074936256
0.044789348 -0.028192649 -0.074963324
-0.020703169 -0.026494503 -0.074815676
-0.019136643 -0.026553677 -0.075011149
-0.016881274 -0.026548374 -0.074867338
-0.015064862 -0.026505826 -0.07505323
0.031499747 -0.026677571 -0.074744821
0.03272495 -0.027229726 -0.075330034
0.043373242 -0.027840894 -0.074959569
0.045196682 -0.027572796 -0.075074978
0.046903215 -0.027335022 -0.075032994
0.049104929 -0.026968496 -0.074896894
0.051008008 -0.026609248 -0.074934863
0.052921776 -0.02649069 -0.074861482
0.054649986 -0.026136003 -0.074524224
-0.0221883 -0.024735097 -0.074309595
-0.021325238 -0.025064323 -0.0752168
0.03137061 -0.025052713 -0.074694544
0.032560166 -0.024898732 -0.075600825
0.053288251 -0.025799545 -0.074585445
0.055174753 -0.025321491 -0.075145997
0.056712456 -0.024616258 -0.074887402
-0.022169618 -0.023034992 -0.07435111
-0.021376807 -0.022937095 -0.075286128
0.031479012 -0.022883842 -0.074745551
0.032367356 -0.023139331 -0.075322665
0.055971947 -0.023968762 -0.07586991
0.057001933 -0.023215236 -0.0751765
0.058021739 -0.022753822 -0.074029334
-0.022172149 -0.021413717 -0.074345216
-0.021504356 -0.020811532 -0.075198546
0.031488229 -0.020951971 -0.074699208
0.032310508 -0.020954169 -0.075456157
0.057118181 -0.021135535 -0.075095981
0.058028176 -0.021467891 -0.074030913
-0.022166478 -0.01902697 -0.074358016
-0.021472605 -0.018849121 -0.07503134
-0.016346177 -0.018297203 -0.075587213
-0.014794296 -0.018733528 -0.075231776
-0.013988884 -0.019263126 -0.075259663
0.031477481 -0.018881351 -0.074840322
0.032577742 -0.018826999 -0.075595386
0.057249893 -0.01915209 -0.075043105
0.058023032 -0.018685535 -0.074109279
-0.022185132 -0.016939625 -0.074319132
-0.02134835 -0.016799735 -0.075228058
-0.018592898 -0.016685193 -0.075582318
-0.016897358 -0.01704105 -0.075196184
-0.015360958 -0.017336963 -0.074548699
0.031333007 -0.01706793 -0.074689388
0.032368775 -0.01669649 -0.07538186
0.057013832 -0.017051078 -0.075167634
0.058034386 -0.016927755 -0.074086666
-0.022201236 -0.014842125 -0.074284673
-0.021086508 -0.015053359 -0.075172022
-0.01898858 -0.015012959 -0.075037606
-0.017285584 -0.015074217 -0.074444748
0.031404465 -0.015036366 -0.074749097
0.032482844 -0.014937406 -0.075404957
0.057103388 -0.015078457 -0.075131074
0.058043212 -0.01516749 -0.074068077
-0.022145029 -0.012885436 -0.074386664
-0.021041838 -0.013102021 -0.0750136
-0.018874485 -0.012899895 -0.074636921
-0.017596222 -0.01293771 -0.074222617
0.031502262 -0.012924034 -0.074805506
0.032407768 -0.012880452 -0.075377956
0.057199493 -0.012931897 -0.075001352
0.058073938 -0.012884239 -0.074002691
-0.022178978 -0.01112389 -0.074318342
-0.021099644 -0.011065459 -0.074926078
-0.018884113 -0.011065112 -0.074617609
-0.017614704 -0.010818401 -0.074255601
0.03141709 -0.010999721 -0.074605882
0.032524291 -0.01111468 -0.075581163
0.057163477 -0.011081437 -0.075006694
0.058019452 -0.011116099 -0.074119501
-0.022156309 -0.0089711295 -0.074379347
-0.02117884 -0.0089272279 -0.075192198
-0.01901502 -0.0089179911 -0.075117595
-0.017339317 -0.0089481287 -0.074433334
0.031449724 -0.0090742875 -0.07476721
0.032446291 -0.0091050137 -0.075354762
0.057138439 -0.0090498915 -0.075071789
0.058010202 -0.0087487083 -0.074139558
-0.022142932 -0.0072161714 -0.074407905
-0.021337068 -0.0070744613 -0.075209983
-0.018648053 -0.0074426867 -0.075488053
-0.017033042 -0.0069086002 -0.075135529
-0.015389222 -0.0067306561 -0.074418202
0.031415775 -0.0069445749 -0.074702628
0.032387011 -0.0070251594 -0.075425945
0.05726004 -0.0069508096 -0.074939884
0.058027543 -0.0070900968 -0.074102424
-0.022178467 -0.004843595 -0.074332781
-0.021412676 -0.004848877 -0.075183816
-0.016746901 -0.0056911213 -0.075712629
-0.014794297 -0.0051601529 -0.075177424
-0.013948353 -0.0041647316 -0.075399496
0.031319719 -0.0050950311 -0.07467147
0.032411225 -0.0051270514 -0.075408265
0.057172623 -0.0050766077 -0.075022608
0.058049649 -0.0048370673 -0.074045293
-0.022200342 -0.0029078971 -0.07428585
-0.021501085 -0.0028642041 -0.075015232
0.031660721 -0.0034450158 -0.074789502
0.033026181 -0.0030404613 -0.075080097
0.03469158 -0.0025428927 -0.075156704
0.053797193 -0.0025302551 -0.075576976
0.055109281 -0.0027085214 -0.075113751
0.056894071 -0.0033476984 -0.074971236
-0.022162925 -0.0010348577 -0.074364372
-0.021329179 -0.0010212619 -0.07518436
0.031399842 -0.00061815436 -0.07467892
0.032908563 -0.00064468605 -0.074922144
0.034864418 -0.0009881889 -0.075207956
0.053428799 -0.0011852656 -0.075904496
0.055055939 -0.00084994384 -0.074958161
0.056859687 -0.00059501169 -0.074928813
0.058033589 -0.00053639698 -0.074072167
-0.022180486 0.0012490621 -0.074327409
-0.02146115 0.00098858576 -0.07514286
0.031626042 0.0017996731 -0.074357852
0.03303514 0.001435624 -0.074911274
0.034785263 0.0010805978 -0.075172633
0.053507436 0.0010445734 -0.075676829
0.054979015 0.0011587982 -0.074814774
0.056497663 0.0015630283 -0.074601695
-0.022196928 0.0027519886 -0.074293464
-0.021452758 0.0030651791 -0.075060442
-0.014501864 0.0036027266 -0.075307421
-0.013961039 0.0032360482 -0.075446546
0.031398959 0.0031955375 -0.074591577
0.032479662 0.0026564356 -0.075129248
0.05563141 0.0021344 -0.075674742
0.057064753 0.0030386322 -0.074932285
0.05803654 0.0028647273 -0.074054398
-0.046933834 0.0046366565 -0.074083596
-0.045019984 0.0044725901 -0.074307255
-0.0426789 0.0047320006 -0.074504636
-0.04107251 0.0052690115 -0.074683979
-0.039306138 0.00560517 -0.074819617
-0.022155734 0.0051119323 -0.074380867
-0.021401437 0.004826542 -0.075071424
-0.018988285 0.0058383481 -0.075761527
-0.016901622 0.0051777847 -0.075450025
-0.015274707 0.0048892261 -0.074860916
0.031508088 0.0050642444 -0.074760206
0.0325009 0.0048223352 -0.075594537
0.057159126 0.0049823239 -0.075058222
0.058055043 0.0049226801 -0.074043505
-0.040280249 0.0061147637 -0.074898243
-0.038823582 0.0064980648 -0.074931279
-0.03703418 0.0071137859 -0.075132258
-0.034833565 0.0075702774 -0.075020678
-0.033919983 0.0079513881 -0.074765146
-0.022119239 0.0072347652 -0.074457504
-0.021088839 0.0070743137 -0.075229704
-0.018826572 0.0070373286 -0.075301386
-0.017088026 0.0068759909 -0.074596316
-0.015725443 0.0064143138 -0.074212596
0.031485144 0.0070124771 -0.07478971
0.032415468 0.0069537992 -0.075526595
0.057180516 0.0068171965 -0.074959069
0.05802666 0.0066254851 -0.074104324
-0.036020793 0.0080649666 -0.075769126
-0.035088912 0.0084093856 -0.074933335
-0.032973763 0.0088052163 -0.074900687
-0.03139212 0.009276934 -0.074840188
-0.022130227 0.009038575 -0.074426487
-0.02103685 0.0090118619 -0.075054817
-0.01906904 0.0089791259 -0.074731886
-0.017353155 0.0088458387 -0.074269973
0.03149135 0.0090378746 -0.074845336
0.032469057 0.009010938 -0.07549876
0.057227194 0.0090534408 -0.074999928
0.058067147 0.0092292577 -0.074017562
-0.03104456 0.011020466 -0.074918941
-0.02217277 0.011050805 -0.07432811
-0.021127656 0.011163475 -0.07478644
-0.019028483 0.011076475 -0.074609071
-0.017598942 0.011047215 -0.074170597
0.031545889 0.010912614 -0.074821137
0.032266039 0.010983668 -0.075441048
0.057301961 0.011099744 -0.075039074
0.05803718 0.011002924 -0.074081421
-0.031210197 0.012899986 -0.074978441
-0.022204654 0.013226471 -0.074277565
-0.020949291 0.013039114 -0.075157389
-0.018960081 0.013123724 -0.074783191
-0.017499138 0.013346849 -0.074432097
0.031429417 0.013070343 -0.074725866
0.032396086 0.012960318 -0.075352542
0.057118893 0.012992538 -0.075108714
0.05804975 0.012540109 -0.074054308
-0.031089857 0.014937733 -0.074942626
-0.022201383 0.015260529 -0.074284837
-0.021257602 0.014838274 -0.075087599
-0.018831111 0.014833817 -0.075394742
-0.017124685 0.015112801 -0.074879006
-0.015599824 0.015505125 -0.074330874
0.031409632 0.014936151 -0.074736439
0.032405157 0.014939643 -0.075444214
0.057257533 0.015002596 -0.075009041
0.058020152 0.015034982 -0.074117243
-0.031155253 0.017058151 -0.074850537
-0.022120254 0.017131438 -0.074455529
-0.021423846 0.01694075 -0.075233139
-0.018303063 0.016322004 -0.075849779
-0.016917063 0.016623385 -0.075509869
-0.015097931 0.017041832 -0.074895702
0.0315274 0.017154224 -0.074797913
0.032457579 0.017287763 -0.075571097
0.057116736 0.016994102 -0.075046733
0.058039092 0.017164521 -0.074076533
-0.03219064 0.019938447 -0.075361654
-0.031305317 0.019028509 -0.075135179
-0.022231126 0.018664829 -0.074221708
-0.021494018 0.019000063 -0.075025447
-0.014647271 0.018231029 -0.075567596
-0.013944596 0.018618317 -0.075444691
0.031490628 0.019135464 -0.074818365
0.032475993 0.018881161 -0.075519219
0.057192072 0.019030733 -0.074953333
0.058015712 0.01896248 -0.07409773
-0.036197778 0.021733936 -0.074867196
-0.03483903 0.021350877 -0.074974723
-0.033001009 0.020816017 -0.075167209
-0.031441737 0.020523498 -0.074837625
-0.022169489 0.020956229 -0.074351057
-0.021388723 0.020929899 -0.075120956
0.031403478 0.021021409 -0.074808031
0.032470033 0.020983171 -0.075387292
0.057295967 0.020949133 -0.074838012
0.058027372 0.021267721 -0.074008226
-0.04050884 0.023638794 -0.074679188
-0.038719565 0.023244593 -0.074893162
-0.037050068 0.022646109 -0.075042553
