# .PCD v0.7 - Point Cloud Data file format
VERSION 0.7
FIELDS x y z
SIZE 4 4 4
TYPE F F F
COUNT 1 1 1
WIDTH 1248
HEIGHT 1
VIEWPOINT 0 0 0 1 0 0 0
POINTS 1248
DATA ascii
0.014181584 0.0060584568 0.0058898581
0.015895141 0.0060702311 0.0059098438
0.017280597 0.0060606701 0.0058960258
0.018706186 0.0060434663 0.005870231
0.020211447 0.0060661444 0.0059075374
0.021612756 0.0060615325 0.0059017129
0.023463061 0.0060564363 0.0058958661
0.024969576 0.0060469024 0.005882537
0.026340833 0.0060427091 0.0058775414
0.027772933 0.0060691275 0.0059213275
0.029560436 0.0060564992 0.0059034186
0.03068047 0.006068158 0.0059233387
0.032372359 0.0060639512 0.0059187142
0.033588771 0.0060547413 0.0059055481
0.034915194 0.0060523623 0.0059033842
0.0369251 0.0060628741 0.0059225657
0.038330711 0.0060521574 0.0059072319
0.039613076 0.0060277819 0.0058700154
0.041152995 0.0060671181 0.0059344866
0.042778138 0.0060684825 0.0059386445
0.044090472 0.0060777985 0.0059550721
0.045775808 0.0060772807 0.0059563094
0.046963796 0.0060388162 0.0058965581
0.048222996 0.0067577302 0.005252935
-0.021329688 0.0076129287 0.0058825584
-0.020210203 0.0078110248 0.0056721987
-0.018691987 0.0079412255 0.0053461757
-0.017255848 0.0081486423 0.0052225483
-0.015788458 0.0083242236 0.005191715
-0.013992764 0.008235191 0.0052656308
-0.012846012 0.0085120071 0.0052472078
-0.011303551 0.0085349539 0.0052528251
-0.0097887134 0.0087272013 0.0051982258
0.013118248 0.0089125875 0.0049233017
0.014293099 0.0087749436 0.0053140791
0.015725048 0.008560271 0.0051598488
0.017228488 0.0085395928 0.0052706134
0.018730056 0.0085094078 0.0052127987
0.020202769 0.0085262749 0.0052359956
0.021777505 0.0085168099 0.0052221222
0.023138454 0.0086375382 0.0050576972
0.024780881 0.0088103237 0.0046576131
0.026197217 0.008846119 0.0046920585
0.027842009 0.0087844906 0.0046327454
0.029156074 0.0088276668 0.0046742097
0.03076005 0.008821439 0.0046680407
0.032006674 0.008806983 0.0046201642
0.035640527 0.008871641 0.0048140306
0.036798354 0.0088407099 0.0047894055
0.038331673 0.0088343425 0.0047775004
0.03985092 0.0088424571 0.0047926726
0.04133717 0.0088510737 0.0048087905
0.042783584 0.008823568 0.0047573494
0.044378102 0.0088626156 0.0048303762
0.045794453 0.008840777 0.0047895294
0.047491506 0.0085590053 0.0049848859
0.048187204 0.0079672392 0.0054986789
-0.0091578187 0.009070497 0.0057243267
-0.0082609588 0.0096330531 0.0052901884
-0.0073674577 0.010396888 0.0052024373
0.010157321 0.010284103 0.0053621642
0.011262263 0.0096751852 0.0052597341
0.012476509 0.0091837477 0.0052204323
0.013653419 0.00901308 0.005848872
0.02347767 0.0096170548 0.0055686282
0.024750117 0.0096112238 0.0054283151
0.026189981 0.0096015399 0.0054190001
0.027809286 0.0096239233 0.0054405378
0.029240975 0.0095329061 0.0053529418
0.030662261 0.0096446378 0.0054603997
0.032045465 0.0097873667 0.0052378182
0.035346404 0.0096424138 0.005238153
0.036745131 0.0092108026 0.0055345972
0.038179226 0.009211394 0.0055340901
0.039756503 0.0092023583 0.0055078398
0.041312434 0.0091827745 0.0054744254
0.042752616 0.009209617 0.0055286889
0.044214651 0.0092223231 0.0055521582
0.045783307 0.0092006791 0.0055035828
0.046871655 0.009192883 0.0055353716
-0.0066386587 0.010948088 0.0053569796
-0.0054526203 0.011704432 0.0052581117
0.0074303062 0.011980359 0.0050978796
0.0082474295 0.011504775 0.0051904549
0.0093540912 0.010789672 0.0050972858
0.032430585 0.011050631 0.0052551017
0.033841316 0.011229904 0.0052385768
0.03504017 0.011050299 0.0052599986
-0.0047343536 0.012097187 0.0052444441
-0.0037839913 0.01250332 0.0052287406
-0.0021769027 0.013030696 0.0053005838
-0.00069691002 0.0133357 0.0052231252
0.0007160434 0.013457599 0.0052872282
0.0022330044 0.013421654 0.0052723526
0.0037281411 0.013236011 0.0051723546
0.0052018119 0.012871515 0.0052448902
0.0066890009 0.012307565 0.0052735
0.00124417 0.013500633 0.0056420299
-0.0046658963 -0.012133099 0.0068042702
-0.0037847508 -0.012495862 0.0067265355
-0.0022410953 -0.013014701 0.0067366525
-0.00071622338 -0.013332227 0.006739256
0.00079978473 -0.013463502 0.0067047756
0.0022630827 -0.013428441 0.0068215574
0.0037243841 -0.013239822 0.0068233162
0.0052527385 -0.012857821 0.0067130099
0.0067401077 -0.012288386 0.0067579518
-0.0065775211 -0.010980523 0.0067880084
-0.0054618195 -0.011682739 0.00668685
0.0074306042 -0.011971368 0.0067816367
0.0082181059 -0.011502951 0.00673158
0.0093925362 -0.0107756 0.0068305829
0.032336965 -0.011330881 0.0068145269
0.033741616 -0.011658186 0.0067050611
0.035070416 -0.011306027 0.0067130392
-0.01708642 -0.0090791555 0.0073358011
-0.015761133 -0.0091057094 0.0071368376
-0.014255365 -0.0091247037 0.0069856164
-0.012835825 -0.0091512706 0.0069591273
-0.011214431 -0.0091710119 0.0069836243
-0.0097430972 -0.0091810999 0.0068401322
-0.0082313148 -0.0097451881 0.0067629148
-0.0073897387 -0.010368854 0.0069695381
0.010119109 -0.010331938 0.0066099921
0.011176855 -0.0098724887 0.0068064965
0.012848031 -0.0093731489 0.0068101059
0.014305739 -0.0091959573 0.0069277557
0.015732573 -0.009165586 0.0069519808
0.017225822 -0.0091633135 0.0069330186
0.018735256 -0.0091522951 0.0068870177
0.020254018 -0.0091508199 0.0068919216
0.02168099 -0.0091586225 0.0069259712
0.023320427 -0.0091625378 0.0068948539
0.024804099 -0.0091674794 0.0068738828
0.026297769 -0.0091626355 0.0068543181
0.027681883 -0.0091594635 0.006841504
0.029236859 -0.0091876527 0.0069553754
0.030746499 -0.0091738319 0.0068995464
0.032121241 -0.0096495999 0.0066977469
0.035437517 -0.0097944681 0.0067092292
0.036823962 -0.0095985951 0.0067347111
0.038264867 -0.0096279206 0.0068310597
0.039749049 -0.009606286 0.0067605036
0.041210562 -0.0095551684 0.0065911855
0.0426872 -0.0095899506 0.0067057926
0.044274319 -0.0096084354 0.0067670653
0.04580465 -0.0095697325 0.0066402694
0.047174308 -0.0094680646 0.0067793448
-0.024130449 -0.0075698211 0.0072951694
-0.023219457 -0.0077655306 0.0070810434
-0.021792812 -0.0079720411 0.0067001064
-0.020286359 -0.0083600376 0.0067286971
-0.018742492 -0.0086369468 0.0067092092
-0.017379161 -0.008800758 0.0066200434
-0.01576478 -0.008856778 0.0063301809
-0.013865377 -0.0083618611 0.0066900868
-0.0128198 -0.0089229792 0.0062235687
-0.01126062 -0.0089315046 0.0062335264
-0.010132597 -0.0089459009 0.006155604
0.014641052 -0.0089710802 0.006092058
0.015848491 -0.0089369817 0.0061768494
0.017206645 -0.0089271599 0.0061545963
0.018788582 -0.0089369398 0.0061953594
0.020159345 -0.0089252079 0.0061804065
0.021582684 -0.0089362254 0.0062326565
0.023096483 -0.0089319898 0.0061726049
0.025108047 -0.0089754714 0.0060982732
0.02621728 -0.0089786742 0.0061112139
0.027677955 -0.0089785205 0.0061105941
0.029088274 -0.0089777177 0.0061073508
0.030796699 -0.0089733321 0.0060896319
0.031786546 -0.0089780726 0.0061087813
0.047858179 -0.0088260425 0.0063556675
0.048201285 -0.0081051569 0.0067716101
-0.026059527 -0.0063889874 0.0071239583
-0.024761613 -0.0067519499 0.0066536767
-0.02339009 -0.007229147 0.0063936464
-0.022284275 -0.0074324892 0.0061122375
-0.018549794 -0.0060970294 0.0072186217
-0.017109079 -0.0061908336 0.0069157467
-0.015741594 -0.0063095586 0.0067586782
-0.013960003 -0.0067360969 0.0067597944
-0.012767568 -0.0064389585 0.0067184675
-0.011216612 -0.0064554214 0.0068161562
0.013215592 -0.0063911607 0.0069873361
0.014331705 -0.0064353794 0.0066888966
0.015742708 -0.0064670909 0.0067664743
0.017259626 -0.0064282003 0.0066675837
0.018800626 -0.0064317682 0.0066770348
0.020237073 -0.006449298 0.0067218808
0.021689154 -0.0064709904 0.0067713354
0.023237124 -0.0064462251 0.0067155603
0.024731226 -0.0064638597 0.0067561944
0.026248643 -0.0064330348 0.0066877953
0.027673544 -0.006459096 0.0067536305
0.02927725 -0.0064513045 0.0067329253
0.030623563 -0.0064748069 0.0067979577
0.032284804 -0.006461008 0.0067690597
0.033770297 -0.0064024897 0.0066266102
0.035213504 -0.0064435177 0.0067248708
0.03675779 -0.0064578182 0.0067590186
0.038287044 -0.0064383703 0.0067141196
0.039757736 -0.0064343326 0.0067106988
0.041245684 -0.00644308 0.0067357426
0.042763684 -0.0064207274 0.0066900142
0.044220995 -0.006473097 0.006825537
0.04574718 -0.0064423573 0.0067421347
0.047215868 -0.0064664464 0.0068223826
0.048197508 -0.006868456 0.0067224032
-0.028507868 -0.0046603326 0.0074568922
-0.02751087 -0.0051294127 0.0070135999
-0.026477082 -0.0054633915 0.0065170578
-0.025282284 -0.0058899294 0.0060603637
-0.023008404 -0.0046834121 0.0072643962
-0.021671025 -0.0050018355 0.0069655632
-0.020331901 -0.0053768302 0.0067875232
-0.018726183 -0.0056535676 0.006488787
-0.017317375 -0.0058141495 0.0062469095
-0.015994867 -0.0059245932 0.0060728411
-0.011160769 -0.0053300178 0.0067285025
0.013378466 -0.0058683157 0.0065723858
0.013750141 -0.0050194738 0.0068075391
-0.028914496 -0.0035985939 0.0071432409
-0.027932508 -0.0038748269 0.0064748665
-0.026908536 -0.0044280025 0.0060105184
-0.024511049 -0.0034399957 0.0071677789
-0.023211617 -0.0038527721 0.0066822297
-0.021905806 -0.0041294112 0.0061695231
-0.011694057 -0.0038578059 0.0067748912
0.01418299 -0.0037456374 0.0067493706
-0.03002782 -0.0020927058 0.0074576139
-0.029224049 -0.0022018906 0.0068150563
-0.028295208 -0.0026117193 0.006164975
-0.025763417 -0.0020587142 0.0073027462
-0.024816258 -0.0022492388 0.0067358967
-0.023712331 -0.0026589683 0.0062294756
-0.012099201 -0.002102185 0.0068113445
-0.01196977 -0.0028153253 0.0068627582
0.014531313 -0.0022348294 0.0067413822
-0.030189209 -0.00056393107 0.0073315976
-0.02934874 -0.00078592286 0.0066268905
-0.0259325 -0.00072359439 0.0070878621
-0.024914479 -0.00076203188 0.0064057228
-0.012237706 -0.00077712594 0.0067064743
0.014694081 -0.0007613909 0.0068036639
-0.030189721 0.00067512586 0.0073350407
-0.02929694 0.00079183362 0.0065843374
-0.026034409 0.00073941582 0.0071666194
-0.024879755 0.00078571605 0.0063806893
-0.012235582 0.00080541463 0.00683191
0.014693268 0.00073627161 0.0067255055
-0.030088961 0.0017492699 0.0074113701
-0.029201271 0.0021854795 0.0067862361
-0.02828463 0.0025297601 0.0061380528
-0.025817601 0.0019392876 0.007279878
-0.024839425 0.0023009141 0.0067721559
-0.023699213 0.0025317802 0.0061508589
-0.012096265 0.0021162664 0.0067625428
-0.011948012 0.0029152993 0.0068336041
0.014531374 0.0022159745 0.0067570796
-0.028896254 0.0036136506 0.0071284096
-0.027928688 0.0038803117 0.0064781331
-0.026912943 0.0044619013 0.0060595982
-0.024549494 0.0034004934 0.0071577453
-0.023302676 0.0038218519 0.0067020226
-0.021982227 0.0041647698 0.0062528774
-0.01173576 0.0037191564 0.006779219
0.014194711 0.0037021651 0.0067643896
-0.027634945 0.0050438768 0.00702682
-0.02645676 0.0053924411 0.0064425822
-0.025283141 0.0059252121 0.0060555846
-0.022937961 0.0047096019 0.0072770948
-0.021732619 0.0049584294 0.0068918513
-0.020238703 0.0053835469 0.0067414041
-0.018829687 0.0056352168 0.0065477276
-0.017202605 0.005821974 0.0062811226
-0.016196581 0.0059262654 0.0061388477
-0.011191658 0.0052598584 0.0067295502
0.013395259 0.0058391965 0.0067697526
0.013724845 0.0050843423 0.006759732
-0.026140556 0.0063704043 0.0071472889
-0.024867026 0.0067544617 0.0067256698
-0.023380687 0.0072054551 0.006339713
-0.02231661 0.0074496563 0.0061412356
-0.019547585 0.0060297437 0.0074201943
-0.018599637 0.0061181397 0.0072354092
-0.017321194 0.0062564304 0.0070712049
-0.015660118 0.0062996857 0.0067311046
-0.013989772 0.0067191948 0.006710487
-0.012614274 0.0064812237 0.006810701
-0.011101652 0.0063995859 0.0068075606
0.013217909 0.0064086951 0.0068876171
0.014255557 0.0064720185 0.0067598606
0.015705755 0.0065283831 0.0069013978
0.017288281 0.006461489 0.0067377458
0.018802769 0.0064545712 0.0067236489
0.020357864 0.0064456752 0.0066901273
0.021715993 0.0064699361 0.0067502786
0.023238434 0.0064551006 0.0067246165
0.024789687 0.0064364038 0.0066721621
0.026270173 0.0064196587 0.0066360794
0.027679034 0.0064584268 0.0067307735
0.029223554 0.0064270166 0.0066647995
0.030763848 0.0064716707 0.0067736749
0.032197081 0.0064552529 0.0067323074
0.033671316 0.0064549274 0.0067318766
0.035214808 0.0064270357 0.0066625304
0.036775455 0.0064619617 0.0067590876
0.038381591 0.0064621875 0.0067694671
0.039757144 0.0064582597 0.006756749
0.041257195 0.0064378618 0.006718853
0.042832978 0.0064100651 0.0066498145
0.044259761 0.006441447 0.0067317062
0.045694519 0.0064833625 0.0068306122
0.047238085 0.0064466167 0.006750152
0.048212375 0.0068914443 0.0066850404
-0.024238197 0.0075824386 0.0074078948
-0.02309709 0.0077963355 0.0070625725
-0.0217366 0.0079888152 0.0066869217
-0.020290064 0.0083739413 0.0067541418
-0.018797405 0.0086651575 0.0067830542
-0.017402845 0.0087624257 0.0065387934
-0.015927866 0.008890925 0.0064741783
-0.013844321 0.0082780784 0.0067080776
-0.012707694 0.0089403903 0.0062315413
-0.011163497 0.0089149335 0.0061645587
-0.01015719 0.0089517869 0.0061984248
0.014726947 0.0089773024 0.006102087
0.015801579 0.0089294408 0.0061483979
0.017432146 0.0089570396 0.0062462478
0.019030282 0.0089389486 0.0061966348
0.020401577 0.0089327963 0.0061871698
0.02170465 0.0089135114 0.0061524301
0.022898695 0.0089240856 0.006187926
0.047894448 0.0088482853 0.0065297186
0.048196733 0.0082493639 0.006839247
-0.017263556 0.0090660546 0.0073429071
-0.015640536 0.0091293287 0.0071587688
-0.014118579 0.0091164531 0.0069316365
-0.012769143 0.00912687 0.006845044
-0.011203131 0.0091610793 0.0069227512
-0.0097406646 0.0091864495 0.0068386882
-0.008252034 0.0097220046 0.0067216926
-0.0073580206 0.010402493 0.0068042497
0.010110385 0.010359908 0.0066756736
0.011290458 0.0098257363 0.0067105666
0.012730244 0.0093943728 0.0067555462
0.014262317 0.0091711124 0.0067206034
0.015724482 0.0091591338 0.0068849223
0.017308118 0.0091816876 0.0069749719
0.018695857 0.0091594253 0.0068871398
0.020295078 0.0091737136 0.0069631613
0.021767391 0.0091683138 0.0069546187
0.023254201 0.0097540263 0.0067256233
0.024667744 0.010364851 0.0068267807
0.026279498 0.010385212 0.0067609935
0.027692597 0.010368559 0.0067985016
0.029283326 0.010365833 0.0068315594
0.030768478 0.010375315 0.0067877406
0.031894147 0.010380047 0.0067828731
0.035384826 0.0098229209 0.0067217834
0.036763564 0.0096044755 0.0067369589
0.038229182 0.0096280845 0.0068166675
0.039705187 0.0095938006 0.0067028245
0.04120953 0.009620443 0.0067914072
0.042756118 0.0096039167 0.0067352289
0.044126067 0.0096093686 0.0067534153
0.045734774 0.0095989006 0.0067186714
0.047298107 0.0094390204 0.0068718935
-0.0066626812 0.010933415 0.0067162854
-0.0054432708 0.011707577 0.0067992969
0.0074359318 0.011980576 0.0071729161
0.0082514575 0.011502201 0.0068249279
0.0094319955 0.010771578 0.006739019
0.02364623 0.010518983 0.0063935975
0.024752196 0.010522014 0.006375093
0.026085587 0.010518122 0.0063556912
0.027774166 0.010520441 0.0063651777
0.029205218 0.010519567 0.0063893474
0.030844504 0.010524829 0.0063698501
0.032337908 0.011258075 0.0067990269
0.033778913 0.011666959 0.0067226798
0.035100184 0.011364068 0.0067954268
-0.004699531 0.012115609 0.0067069619
-0.0036995786 0.012536489 0.0067351069
-0.0021488157 0.013037303 0.0067175897
-0.00074658834 0.013326523 0.0066631241
0.00072642055 0.013459296 0.0066990512
0.0023512803 0.01341234 0.0067713154
0.0037147407 0.013240847 0.0067207674
0.0052619125 0.012852243 0.0066897692
0.0067706555 0.012272583 0.0066505671
0.0012270741 0.013501994 0.0060079191
-0.0046807956 -0.012127921 0.008160444
-0.0037669414 -0.012501426 0.0082526226
-0.0022422783 -0.013014074 0.008224383
-0.00079806376 -0.013317736 0.0083099864
0.00075599243 -0.013460001 0.0082187261
0.0022467435 -0.01342801 0.0082228547
0.0037201047 -0.013239377 0.0082722018
0.0052397302 -0.012859868 0.0082831224
0.0066641546 -0.012319403 0.0083087813
-0.0065912437 -0.010973849 0.0082013318
-0.0055141877 -0.011651229 0.0083316397
0.0074570687 -0.011960349 0.0082395123
0.0082343305 -0.011497519 0.0082605761
0.0095044877 -0.010735047 0.0082240282
0.032369986 -0.011460299 0.0082614785
0.033752732 -0.011900268 0.0082525648
0.035124 -0.011406735 0.0083075417
-0.021320987 -0.0090131583 0.008908743
-0.020242874 -0.0090905335 0.0086141052
-0.018677317 -0.0091756275 0.0083367275
-0.017233659 -0.0092814239 0.0082760388
-0.015707765 -0.0093595516 0.0082758665
-0.014053662 -0.0093126837 0.0082794372
-0.012668211 -0.0094034057 0.0083077466
-0.011179046 -0.0094128745 0.0082880426
-0.009656677 -0.0094233193 0.0082102213
-0.0082360748 -0.0098148752 0.0082098041
-0.0073845866 -0.010374058 0.0083070863
0.010173501 -0.010360642 0.0082065277
0.011241817 -0.009938498 0.0082357423
0.012692512 -0.0095607517 0.0082232412
0.014276098 -0.0094109606 0.0081895031
0.015815878 -0.0094167804 0.0082684252
0.017233798 -0.0094156712 0.0082786903
0.018647805 -0.0094113834 0.0082673244
0.020254277 -0.0094036497 0.0082377093
0.021745447 -0.0094028534 0.0082618361
0.023185343 -0.0094210673 0.0081294393
0.024766468 -0.0094945394 0.0081950286
0.026211746 -0.0095316414 0.0083449036
0.027772544 -0.0095123807 0.0082671009
0.029301183 -0.0095203575 0.0082993181
0.030754782 -0.0095031532 0.008229821
0.032052819 -0.0097897099 0.0082059363
0.035425179 -0.010052989 0.0082780896
0.036724735 -0.0099012144 0.0083866091
0.038329814 -0.0098828524 0.008200977
0.039739862 -0.0098828115 0.0082005523
0.041267876 -0.0098924367 0.0082978718
0.042735849 -0.0098834801 0.0082073361
0.044301346 -0.0098918742 0.0082922
0.045780331 -0.0098894341 0.0082675172
0.047308434 -0.0096770534 0.0082579562
0.048051916 -0.0090940567 0.0085937977
-0.025778543 -0.0077058617 0.0087637296
-0.024711944 -0.0079252776 0.0083785458
-0.023284476 -0.0083343331 0.0082185399
-0.021729536 -0.0086968644 0.0081808921
-0.020459939 -0.0088342978 0.0079177683
-0.018967465 -0.008962323 0.0076241419
-0.013772984 -0.0082108006 0.0082055824
0.04821657 -0.0083429096 0.008232736
-0.028628316 -0.0060665309 0.0088658836
-0.027677948 -0.0063867276 0.0083994679
-0.02634212 -0.0069934418 0.0080773579
-0.02524158 -0.0073205116 0.0077144206
-0.021526663 -0.0061275912 0.0086228671
-0.0202496 -0.0063011646 0.0083594313
-0.018796939 -0.006488604 0.0082080737
-0.017250197 -0.0066354619 0.0080809537
-0.015726779 -0.0067823213 0.0082529727
-0.014012805 -0.0070368941 0.0082655931
-0.012887098 -0.0068791439 0.00827708
-0.01112206 -0.0067027481 0.0082142744
-0.010432145 -0.0068161045 0.0083993897
0.013114441 -0.0066537447 0.0083351694
0.014323628 -0.0068662968 0.0081642233
0.015740633 -0.0068911924 0.0083255954
0.017264383 -0.0068831281 0.0082662897
0.018815037 -0.0068871505 0.0082862899
0.020188287 -0.0068799946 0.0082734386
0.021724166 -0.0068672867 0.0081808278
0.023275904 -0.0068762717 0.0082298443
0.024753483 -0.0068657305 0.0081798658
0.026269883 -0.0068785758 0.0082647642
0.027726384 -0.0068889563 0.0083188927
0.029207619 -0.0068895132 0.0083403541
0.030764341 -0.0068670772 0.0081960075
0.0322515 -0.0068862438 0.0083172666
0.033732381 -0.0068802922 0.0083077783
0.03526609 -0.0068811011 0.0083054369
0.036763903 -0.0068845288 0.0083451113
0.038277626 -0.0068778801 0.00829692
0.039788827 -0.0068645948 0.008199905
0.041283026 -0.0068654274 0.0082209921
0.042733874 -0.006869786 0.008258556
0.044223212 -0.0068696658 0.0082629248
0.045790669 -0.0068605426 0.00820274
0.047310065 -0.0068697468 0.0082875313
0.048199639 -0.0071090981 0.0082354574
-0.030160075 -0.004642393 0.0089296009
-0.029131953 -0.0051024728 0.0083761634
-0.027978078 -0.0056107501 0.0078112911
-0.025524808 -0.0045616357 0.0088103339
-0.024633193 -0.004856627 0.0085301837
-0.023275165 -0.0052537853 0.008146924
-0.021783389 -0.0056459177 0.0078754239
-0.020672675 -0.0058946065 0.0076855221
-0.011193516 -0.0052539124 0.0083512636
0.013415425 -0.0057934807 0.0084497416
0.013723897 -0.0050820881 0.0082565015
-0.030493643 -0.003586879 0.0085560959
-0.029608084 -0.0038605193 0.0078876475
-0.027094278 -0.0032210159 0.0089165242
-0.02606356 -0.0037272891 0.0084856404
-0.024919096 -0.0040913937 0.0079391915
-0.011750855 -0.0036678854 0.0082817357
0.014175123 -0.0037715889 0.0082504498
-0.031576507 -0.0018082098 0.0089354813
-0.030789066 -0.0022670226 0.0082546799
-0.029915337 -0.0027076961 0.007599893
-0.02748147 -0.0021644447 0.0086947856
-0.026522975 -0.0023027782 0.0079737324
-0.025495352 -0.002988195 0.0075214757
-0.012107091 -0.0020399038 0.0082737589
-0.011964962 -0.002841881 0.0082540866
0.014511594 -0.0023471711 0.0082235541
-0.031667359 -0.00085115636 0.0088203242
-0.0309198 -0.00075677893 0.0080418196
-0.027616899 -0.00077818625 0.0084128845
-0.026748272 -0.00097954355 0.0077337567
-0.012239856 -0.00073077867 0.0082985125
0.014697435 -0.00068899663 0.0082308734
-0.031663828 0.00064792944 0.0087983496
-0.03101119 0.00084835495 0.0081442734
-0.027618622 0.00074977189 0.0084122354
-0.026745027 0.00074581738 0.0076995082
-0.012234395 0.00080838241 0.0081531154
0.014696038 0.00070190168 0.0081929872
-0.031563081 0.0018906574 0.0089458032
-0.030734079 0.002277507 0.0082034227
-0.029882884 0.0027197655 0.0075683347
-0.027464926 0.0021176557 0.0086557781
-0.026483728 0.0022694459 0.0079265172
-0.012091335 0.0021478946 0.0082786409
-0.011967966 0.002829961 0.0082733156
0.014532449 0.0022153081 0.0082640527
-0.03049019 0.0037399298 0.0086445101
-0.029585326 0.0038794789 0.0078791259
-0.027125617 0.0031202452 0.0088729775
-0.026129099 0.0035798957 0.0084212236
-0.025051303 0.0040046377 0.0079696523
-0.023896389 0.0043895291 0.007508154
-0.011724775 0.0037612058 0.0082187634
0.01417311 0.0037868128 0.0082055014
-0.030107349 0.0046466505 0.0088810977
-0.029147953 0.0051555922 0.0084270546
-0.028002309 0.0055945045 0.0078210821
-0.02558247 0.0045169904 0.0088138776
-0.024511671 0.0049525355 0.0085446667
-0.023238607 0.0053154067 0.0082193818
-0.021883424 0.0057227961 0.0080651771
-0.020486768 0.0059204921 0.0076870094
-0.011199741 0.0052439589 0.0082904426
0.013405752 0.0058167716 0.0082857478
0.013745692 0.0050314092 0.0082698595
-0.02864912 0.006032601 0.0088305511
-0.027636802 0.0064321612 0.0084089208
-0.026386315 0.0070369425 0.0081830807
-0.025201343 0.0073411763 0.007711763
-0.022642866 0.0060119363 0.0089658974
-0.02157137 0.0061736065 0.0086829048
-0.020227173 0.0063227629 0.0083728507
-0.018769551 0.0065063639 0.0082410229
-0.017248053 0.0066774376 0.0082261488
-0.015787112 0.0067956331 0.0082599893
-0.014083546 0.0069902297 0.0081968652
-0.0127965 0.0068825809 0.0082894834
-0.011083189 0.0066895965 0.0082518319
-0.010431046 0.0068625095 0.0084552756
0.013122377 0.0066270973 0.0082139978
0.014211459 0.0068629072 0.0081967553
0.015770299 0.0068820422 0.0083201863
0.017225716 0.0068762302 0.0082852961
0.018790515 0.0068576899 0.0081564961
0.020225074 0.0068688565 0.0082396744
0.021819605 0.006875223 0.0082677389
0.0231716 0.0068688886 0.0082412902
0.024753112 0.006876858 0.0082841469
0.026253885 0.0068574306 0.0081400191
0.027819937 0.0068758237 0.0082843881
0.029299235 0.0068724672 0.0082522649
0.030769132 0.0068746684 0.0082750665
0.032257855 0.006877041 0.0082850493
0.033766299 0.0068546138 0.0081286281
0.035293501 0.0068648378 0.0082136057
0.036735184 0.006870904 0.0082397172
0.038287144 0.0068698968 0.0082350262
0.039755456 0.0068729222 0.0082632815
0.04126738 0.0068716207 0.0082535492
0.042699747 0.0068738279 0.0082701603
0.044343267 0.0068737119 0.008285136
0.045783672 0.006857011 0.0081769302
0.047307242 0.0068748198 0.0083158715
0.048198026 0.0071174018 0.00828001
-0.025845639 0.0077001369 0.008746638
-0.024658851 0.007938779 0.0083573684
-0.02325695 0.0083569968 0.0082368758
-0.021760257 0.0086996257 0.0082047526
-0.02040131 0.0088553065 0.0079465536
-0.01906787 0.008960207 0.0077152229
-0.01377299 0.0082484307 0.0082338294
0.04821302 0.0083714025 0.0082676187
-0.020100487 0.0091109928 0.0086781448
-0.018703394 0.0091918586 0.0083919363
-0.01724289 0.0092673898 0.008216342
-0.015773831 0.0093403393 0.0082470505
-0.01405453 0.009335313 0.0083357831
-0.01267595 0.0094046788 0.0082777599
-0.011289068 0.0094056651 0.0081987903
-0.0097654862 0.009422468 0.0082201045
-0.0082580959 0.0098021366 0.0081983153
-0.0073746271 0.010387545 0.0082017053
0.010180316 0.010361793 0.0081186956
0.011215465 0.0099579031 0.0082041658
0.012710596 0.009574689 0.0082339095
0.014208917 0.0094313323 0.0082169315
0.015693 0.0094144279 0.0081885038
0.017154407 0.0094190277 0.0082692811
0.018761933 0.0094196107 0.0082708364
0.020341201 0.0094124041 0.0082593188
0.021763431 0.0094091622 0.0082414635
0.023223549 0.009733039 0.0082496209
0.02478545 0.010079007 0.0081942324
0.026227418 0.010095917 0.0081259357
0.027741946 0.010065975 0.0082468856
0.029256089 0.010066989 0.0082428167
0.030705551 0.010059474 0.008273242
0.032008532 0.010145348 0.0083297128
0.035454266 0.010027667 0.0082364781
0.036831241 0.0099028926 0.0083579533
0.038264118 0.0098896939 0.0082238186
0.039759576 0.0098880138 0.0082067512
0.041286923 0.0098873097 0.008199594
0.042779922 0.0098907743 0.008234771
0.044221234 0.009894222 0.0082698166
0.045769379 0.0098992605 0.00832099
0.047307447 0.0096580731 0.0082711438
0.048070829 0.0090489108 0.0083035361
-0.0066421069 0.010947249 0.0082236296
-0.0054840101 0.011680787 0.0082572531
0.0074362364 0.011981578 0.0080300048
0.0083010383 0.011471502 0.0082955183
0.0094652241 0.010769437 0.0082554948
0.032379705 0.011521054 0.0082764262
0.033772513 0.011903127 0.0082334112
0.035092272 0.011447175 0.0082765855
-0.0047090282 0.012113943 0.0081954179
-0.0037512237 0.012514024 0.0082416264
-0.002328469 0.012994034 0.0081888186
-0.00078161265 0.01332554 0.0081958119
0.00077495398 0.013463434 0.008255587
0.0023971598 0.013408782 0.008185884
0.0038163299 0.013216492 0.0081918351
0.0053316168 0.012832761 0.0082274275
0.0066840118 0.012309032 0.0082108872
0.0012376499 0.013500489 0.0081652543
-0.0046867742 -0.012124395 0.0096818479
-0.0037873061 -0.012491543 0.0097792484
-0.0022010445 -0.013022141 0.0097460495
-0.00075511675 -0.013324255 0.0097174663
0.00069040904 -0.013454677 0.0097419647
0.0023039724 -0.013420458 0.0097417245
0.0037932424 -0.013221378 0.0097855022
0.005243029 -0.012858236 0.0096909739
0.0067061726 -0.012298959 0.0097413529
-0.0067175748 -0.010886309 0.0097330697
-0.0054849833 -0.011667532 0.0096884388
0.0074645015 -0.011959801 0.0094320625
0.008219582 -0.011510508 0.0098515442
0.0094195046 -0.010795151 0.0098087611
0.032360435 -0.01146782 0.0097447317
0.033834737 -0.01195738 0.009723084
0.035083305 -0.011502472 0.009685942
-0.022993686 -0.0090907356 0.010179919
-0.021701762 -0.0091746254 0.0097462069
-0.020217648 -0.0093175294 0.0097406451
-0.018697187 -0.0094113285 0.0097548012
-0.017292472 -0.0094660753 0.0097936038
-0.015698474 -0.0094782794 0.0097637307
-0.014003892 -0.009357797 0.0098300949
-0.012860066 -0.0094571542 0.0096877199
-0.01131703 -0.0094436584 0.00976755
-0.0097824391 -0.0094468128 0.0097536081
-0.0081757652 -0.0098663401 0.0097514978
-0.0073449467 -0.01040741 0.0097955707
0.010221521 -0.010351493 0.0096775973
0.011178365 -0.009983276 0.0097929435
0.012750652 -0.0095974701 0.0097771669
0.014275559 -0.0094773918 0.0097698411
0.015732473 -0.0094731394 0.0097682662
0.017268477 -0.0094699161 0.0097928355
0.018745055 -0.009469199 0.0096736839
0.020295292 -0.009462391 0.009783078
0.021735303 -0.0094587738 0.009789858
0.023202276 -0.0096523846 0.009745664
0.024698194 -0.0098942444 0.0098096151
0.026256401 -0.0098705916 0.0097140763
0.027746815 -0.0098855942 0.0097746821
0.029204806 -0.0099111078 0.0098777339
0.03069715 -0.0098763201 0.0097372141
0.03206769 -0.010002406 0.0097197453
0.035460979 -0.010044644 0.009762452
0.036714528 -0.0099586835 0.0096603995
0.038181346 -0.0099516287 0.0097338231
0.039719425 -0.0099524539 0.0097572431
0.04120408 -0.009945726 0.009795134
0.042846587 -0.0099543864 0.0097009577
0.044201382 -0.0099530127 0.0097352434
0.045732811 -0.0099452036 0.009800842
0.047354065 -0.0096882507 0.0098243458
0.048052229 -0.0091369348 0.0096177189
-0.02741961 -0.0077135032 0.010140298
-0.026192395 -0.0080501921 0.0097516589
-0.024791809 -0.0085100578 0.0096946089
-0.023450851 -0.0088303164 0.0096051535
-0.022211727 -0.0089550978 0.0091371965
-0.013772989 -0.0082459822 0.0096998466
0.048223406 -0.0082561504 0.0098087089
-0.030132432 -0.0060769459 0.010312942
-0.029075738 -0.0065482687 0.00985331
-0.027915627 -0.0071321288 0.0096177291
-0.02687251 -0.0074367165 0.0091609014
-0.024290843 -0.0060818177 0.010287403
-0.023107095 -0.0062553161 0.0098766927
-0.02174408 -0.0065362621 0.009756445
-0.020227339 -0.0067488658 0.0097701978
-0.018780326 -0.0068891761 0.0098182289
-0.017226685 -0.0069358321 0.0097492859
-0.015784197 -0.0069513996 0.0097350432
-0.014033145 -0.0070782523 0.0097619193
-0.012803906 -0.0069501712 0.0097358748
-0.011022652 -0.0066861594 0.0097172866
-0.010423785 -0.0068395268 0.0096921055
0.013128506 -0.0067038187 0.0096993605
0.014250265 -0.0069619794 0.0097964387
0.015774868 -0.0069662076 0.0097416975
0.017287474 -0.0069676121 0.0097124372
0.018740296 -0.0069629643 0.009740388
0.020242732 -0.00696223 0.0097639859
0.021738695 -0.0069580399 0.0098196939
0.023268798 -0.0069635641 0.0097437911
0.02476665 -0.006960683 0.0097400062
0.026178658 -0.0069614481 0.0097415503
0.027742079 -0.0069566816 0.0097945267
0.029306969 -0.0069604642 0.0097096227
0.030798502 -0.0069619841 0.009698133
0.032255396 -0.0069595054 0.0097357566
0.033773035 -0.0069579636 0.0097569367
0.035337556 -0.0069536585 0.0097979242
0.036680572 -0.0069546835 0.0097778589
0.038190078 -0.0069511817 0.0097521683
0.039791185 -0.0069455556 0.0098616667
0.041277859 -0.0069556227 0.0097084492
0.042732146 -0.0069491039 0.0097495262
0.044385128 -0.0069428599 0.0097958706
0.045817412 -0.0069535673 0.0096945409
0.047323558 -0.0069414238 0.0097563313
0.048184607 -0.0071165487 0.0096242288
-0.031575575 -0.0045373552 0.010395027
-0.030701656 -0.0051255324 0.0099468743
-0.02965568 -0.0056622927 0.0093602072
-0.027213167 -0.0046735397 0.010383434
-0.026158869 -0.0049898061 0.0098913526
-0.024866443 -0.005548676 0.0096652638
-0.023612792 -0.0058670687 0.0093190661
-0.011182848 -0.0052787266 0.0097808428
0.013397734 -0.0058298823 0.0095862914
0.01372943 -0.0050696586 0.0097832642
-0.031845126 -0.0036028535 0.010074419
-0.031143369 -0.0038497876 0.0094180694
-0.028696047 -0.003135748 0.010340169
-0.027663291 -0.003700743 0.0098173236
-0.026632041 -0.0041973349 0.0093457475
-0.011703836 -0.0038245185 0.0096971029
0.014189148 -0.0037235182 0.0097632902
-0.032208443 -0.0022226726 0.0098189423
-0.03140457 -0.0028058146 0.0090838093
-0.028984496 -0.0021710496 0.010085883
-0.028090995 -0.0024365035 0.0093545113
-0.012110244 -0.002020746 0.0098513374
-0.011957555 -0.0028786305 0.0095987646
0.014529572 -0.0022264782 0.0097778868
-0.033053819 -0.00060352613 0.010439254
-0.032459434 -0.00070220267 0.0097435955
-0.029148737 -0.00071154715 0.0098237153
-0.028347859 -0.00083820435 0.0090600578
-0.01223373 -0.00084175385 0.0097570512
0.014691565 -0.00079646747 0.0097026993
-0.033059742 0.00049055356 0.01045635
-0.032407414 0.00082662044 0.0096910754
-0.029134594 0.00070651365 0.0098061115
-0.02838405 0.0010484711 0.0091463896
-0.012241797 0.00070497987 0.0096457005
0.01469177 0.00078833377 0.0097863283
-0.032182708 0.0021994167 0.0097726779
-0.031376626 0.0027828796 0.0090380991
-0.028950328 0.0021639981 0.010053786
-0.028035766 0.0024589186 0.0093177473
-0.012109776 0.0020242129 0.0097503802
-0.011959022 0.0028651378 0.0098730484
0.014536321 0.00219963 0.0096639842
-0.031890385 0.0035851372 0.010118352
-0.031081079 0.0039471802 0.0094039449
-0.028680138 0.0031979396 0.01037011
-0.02774957 0.0036764694 0.0098736193
-0.026631098 0.0041768271 0.0093143061
-0.011708342 0.0038167131 0.009734476
0.014191375 0.0037163086 0.00977985
-0.031538285 0.0045301141 0.010328248
-0.030605273 0.0051259366 0.0098390942
-0.029676853 0.0056352802 0.0093399063
-0.027231066 0.0046416153 0.01031594
-0.02615373 0.0049917973 0.0098611796
-0.024808273 0.0055757887 0.0096963206
-0.023493931 0.0058342414 0.0092340196
-0.01119267 0.0052594151 0.0097034313
0.013393554 0.005841115 0.0097167389
0.01374208 0.0050412663 0.0097670639
-0.030134082 0.0060908026 0.010320404
-0.029152084 0.0065518296 0.0099285822
-0.027943704 0.0071455929 0.009645272
-0.026747128 0.0074804132 0.0091203535
-0.024287244 0.0061315345 0.010342049
-0.023103274 0.0062493645 0.0098020053
-0.021644745 0.0065286439 0.0096957162
-0.020285735 0.00675559 0.0097875204
-0.018726924 0.0068843979 0.0097897695
-0.017197577 0.0069435695 0.0097825136
-0.015722208 0.0069619836 0.0097211162
-0.014004 0.007075836 0.0097362613
-0.012781926 0.0069490755 0.0097947353
-0.010947486 0.0066683353 0.0097012883
-0.010430604 0.0068858536 0.0097297169
0.013107996 0.0067036138 0.0096958289
0.014245265 0.0069614942 0.0098357238
0.015746001 0.0069683744 0.0097511904
0.017180789 0.0069693211 0.0097514968
0.018751204 0.0069718105 0.0097013377
0.020357054 0.0069659119 0.0098155066
0.021737594 0.0069626584 0.0097842785
0.023176689 0.0069644297 0.0098036481
0.024808593 0.0069653355 0.0097824251
0.026336091 0.0069673494 0.0097023621
0.027733522 0.0069644512 0.0096661691
0.029186269 0.0069632381 0.0097441832
0.030824112 0.0069583445 0.0098044081
0.032217477 0.0069618025 0.0097398451
0.033756789 0.0069594416 0.0097312042
0.035286691 0.0069623566 0.0097335698
0.036741 0.0069549028 0.0097152451
0.038208883 0.0069595994 0.0097503951
0.039781518 0.0069582639 0.0097102653
0.041189127 0.0069571557 0.009702526
0.042828351 0.0069556567 0.0097101405
0.044227213 0.0069502224 0.00976317
0.045809194 0.0069455621 0.0097964099
0.047271404 0.0069495728 0.0097750444
0.04817199 0.007062085 0.0097298129
-0.027467806 0.0077370154 0.010234443
-0.026202256 0.0080299908 0.0097116632
-0.024820954 0.0085308487 0.0097591961
-0.023413185 0.0088193631 0.0095549971
-0.022242213 0.0089584794 0.0091794459
-0.013772987 0.0082636354 0.0098023992
0.048223823 0.0082090236 0.0096828537
-0.022866741 0.0090858061 0.010078941
-0.021766495 0.0091942586 0.0098460428
-0.020190069 0.0093275625 0.0098021394
-0.018733889 0.0093986504 0.0097492728
-0.017226908 0.0094475057 0.0097445762
-0.015688829 0.0094679231 0.0096475203
-0.014081941 0.0093851266 0.0097927265
-0.012733817 0.0094655016 0.0097096041
-0.011336386 0.0094691422 0.0097374087
-0.0097734295 0.0094820587 0.009747508
-0.008184514 0.0098726517 0.0097668897
-0.0073832138 0.010384155 0.0097988825
0.010276094 0.010329202 0.0096913669
0.011240507 0.0099589583 0.0096880691
0.012766732 0.0095948344 0.0097482726
0.014206852 0.0094833234 0.0096959481
0.015873091 0.0094766347 0.0097522484
0.017238816 0.0094715934 0.0097483667
0.018774642 0.0094743473 0.0097353375
0.020247176 0.0094700167 0.0097790845
0.021775458 0.0094660735 0.0097115366
0.023337588 0.0095876642 0.0097629176
0.024627581 0.0097067943 0.0096977688
0.026222551 0.0096753677 0.0098247416
0.027806694 0.0096739633 0.009830473
0.029231729 0.0096947942 0.0097464062
0.03078445 0.009692423 0.0097560696
0.032054994 0.0098947864 0.0097717205
0.035454225 0.010050059 0.0097235655
0.036842488 0.0099576842 0.0097170938
0.038165163 0.0099541722 0.0097596347
0.039757378 0.009952723 0.009751101
0.041297391 0.009953131 0.0097925067
0.042801347 0.0099550346 0.0097695189
0.044265646 0.009954012 0.0097348075
0.045723908 0.0099578276 0.0097117545
0.04727615 0.0097436812 0.0097502759
0.04810055 0.0090876603 0.0096072033
-0.0066268835 0.010956286 0.0097098304
-0.0054434943 0.011702283 0.0098933494
0.0074482104 0.011978107 0.0094896127
0.0082793664 0.01148323 0.009724265
0.0094114924 0.010803522 0.0097691221
0.032353673 0.011467455 0.0097266268
0.033739459 0.011964846 0.0097153801
0.035125408 0.01147608 0.0096959677
-0.0047235996 0.012108675 0.009762682
-0.0037431202 0.01251552 0.0098215686
-0.002227118 0.013017834 0.009814729
-0.00068640558 0.013338834 0.0097586196
0.00077553355 0.013463075 0.0097381845
0.0023654846 0.013411324 0.0098367948
0.0036872528 0.013249322 0.0097039025
0.0052666995 0.012850703 0.0097622685
0.0066529228 0.01232162 0.0096607357
0.033755507 0.012000696 0.009360251
0.001220753 0.013501519 0.010388806
-0.0047558206 -0.012089743 0.01120495
-0.0037181729 -0.012517333 0.011176357
-0.002209258 -0.013018678 0.011243319
-0.00074641913 -0.013325229 0.011253234
0.00076253968 -0.013457496 0.011332741
0.0022354682 -0.013424137 0.011252989
0.0037921914 -0.013222667 0.011264361
0.0053039803 -0.012838391 0.011152373
0.0066614957 -0.012315441 0.011224892
-0.0065684575 -0.010991333 0.011372325
-0.0054533063 -0.011685084 0.011225152
0.0074564489 -0.011969862 0.011052079
0.0082184616 -0.011512544 0.011222413
0.0094651915 -0.010757686 0.011207802
0.032360177 -0.01141001 0.011271891
0.033732668 -0.011820144 0.011209998
0.035100136 -0.011353522 0.011218818
-0.024574395 -0.0091011273 0.011406945
-0.023268852 -0.0092509817 0.011242772
-0.021771016 -0.009414671 0.01125349
-0.020208731 -0.0094676157 0.01126119
-0.018783044 -0.0094543844 0.01132779
-0.017265985 -0.0094320811 0.011218108
-0.015773175 -0.0093691787 0.011283346
-0.014109117 -0.0092729907 0.011180126
-0.012674071 -0.0092765717 0.011263791
-0.011249004 -0.0092993611 0.011182443
-0.0097393766 -0.0093096904 0.011255108
-0.0082356548 -0.0097745406 0.011279225
-0.0073779514 -0.010379345 0.011242039
0.01021147 -0.010326277 0.011271257
0.011270276 -0.0098896995 0.011296009
0.012720193 -0.0094984276 0.011242906
0.014313372 -0.0093005365 0.011322326
0.015802292 -0.0092968373 0.011215085
0.017334286 -0.0092636067 0.011365055
0.018790649 -0.0092958612 0.011201781
0.020244732 -0.009305465 0.011134734
0.021719519 -0.0092599979 0.011339704
0.023232773 -0.0098013906 0.011294463
0.024720179 -0.01022788 0.011157328
0.026253615 -0.010252888 0.011258353
0.027718119 -0.010257449 0.011276761
0.029263373 -0.010240681 0.011209031
0.030742873 -0.010250242 0.011247642
0.031976644 -0.010289387 0.011198497
0.035450049 -0.0099416552 0.011216125
0.036780261 -0.0097757811 0.011262926
0.0382635 -0.009786645 0.011222398
0.039783135 -0.0097845318 0.011232601
0.041152205 -0.0097829839 0.011226082
0.042813126 -0.0097845756 0.011237726
0.044173751 -0.0097639188 0.011321618
0.045739099 -0.0097608427 0.011326748
0.047317389 -0.0095815342 0.011209656
0.048029296 -0.0090407794 0.010860335
-0.028917357 -0.0077069248 0.011580411
-0.027765378 -0.008087527 0.011251394
-0.026313905 -0.0085991584 0.011218345
-0.025034064 -0.0088712377 0.010935842
-0.013772987 -0.0082834279 0.011326425
0.047963165 -0.0089195147 0.011735775
0.048210911 -0.0082822498 0.011273965
-0.03051077 -0.0065815737 0.011496943
-0.029367747 -0.0071350746 0.011044732
-0.02845273 -0.0074465121 0.010615308
-0.025859401 -0.006124266 0.011712389
-0.024757473 -0.0062993979 0.011198491
-0.023273686 -0.0066568828 0.011237181
-0.021812113 -0.0068723736 0.011330026
-0.02026118 -0.0069478266 0.011302315
-0.018742427 -0.0069424328 0.011326617
-0.017294405 -0.0068871668 0.01132284
-0.015708782 -0.0068026553 0.011245464
-0.014018621 -0.006871691 0.011330988
-0.012720632 -0.0066834479 0.011317041
-0.011095071 -0.0066043404 0.011254932
-0.010459706 -0.0067596384 0.010935415
0.013186221 -0.0065617305 0.011144273
0.014331847 -0.006714548 0.01123411
0.015804192 -0.0066734925 0.011362855
0.017279401 -0.0067127594 0.011244357
0.018724365 -0.0067122285 0.011236785
0.020220028 -0.0066917264 0.011304629
0.021731159 -0.0067401174 0.011143045
0.023205927 -0.0066846022 0.011332759
0.024742793 -0.0067247027 0.011188934
0.026271151 -0.0066962382 0.011291402
0.027724253 -0.0067236619 0.01119576
0.029178623 -0.0067130071 0.0112243
0.030826909 -0.0067037898 0.011254754
0.032308605 -0.0066993111 0.011281742
0.033714507 -0.0067037297 0.011256461
0.03531947 -0.0067261718 0.011183179
0.036695197 -0.0067070127 0.011239627
0.03820096 -0.0066993926 0.011263307
0.039822247 -0.0067132316 0.011209827
0.041301727 -0.0066814902 0.011302194
0.042700194 -0.0066902936 0.01128906
0.044220921 -0.0066969916 0.011248328
0.045713611 -0.0067192707 0.011175232
0.047261305 -0.0066867103 0.011280772
0.048212469 -0.0070411316 0.0112613
-0.03196729 -0.0050927969 0.011447706
-0.031156015 -0.0055936617 0.010984271
-0.028686946 -0.0046323799 0.011780563
-0.027585521 -0.0050984924 0.011381756
-0.026345843 -0.0056136623 0.011063508
-0.025387887 -0.00588293 0.010639871
-0.011178487 -0.0052883248 0.011254054
0.01344563 -0.0057270969 0.011344945
0.013713721 -0.0051054638 0.011286471
-0.033191696 -0.0034944925 0.011693536
-0.032505281 -0.0039034351 0.011084551
-0.030078124 -0.0031105697 0.011830816
-0.029131543 -0.0037504162 0.011334172
-0.028155511 -0.0042298166 0.01077601
-0.011725626 -0.0037498181 0.011286795
0.014196783 -0.0036981374 0.011217303
-0.033514395 -0.0021087541 0.011412894
-0.032789957 -0.0026290303 0.010675915
-0.030318484 -0.0020785802 0.011504311
-0.029608686 -0.0024736824 0.010899722
-0.012091018 -0.0021514269 0.011260173
-0.011958411 -0.0028739884 0.011305842
0.01452159 -0.0022723731 0.01133618
-0.033627298 -0.00079940533 0.011225226
-0.030529842 -0.00071860454 0.011316847
-0.029887779 -0.00081128342 0.010606767
-0.012239606 -0.00072745141 0.011269711
0.014693834 -0.00077846792 0.01125544
-0.033655126 0.00076397642 0.01126731
-0.030552384 0.00068700628 0.011340337
-0.029902864 0.00084660837 0.010624687
-0.012235086 0.000803217 0.01123587
0.014692578 0.00075889489 0.011235731
-0.033480447 0.0022045027 0.011410611
-0.032845151 0.0025158152 0.010708025
-0.030316396 0.0021003585 0.011496613
-0.029582595 0.0025543785 0.010907173
-0.012104383 0.0020524156 0.011249383
-0.011962074 0.0028503849 0.011310786
0.014530027 0.0022381786 0.011329473
-0.0332633 0.003408852 0.011703589
-0.032496579 0.0038832114 0.011063314
-0.030061988 0.0032179959 0.01188277
-0.029134592 0.0036741309 0.011259913
-0.028194627 0.0042185998 0.010780768
-0.011713071 0.003795827 0.011205393
0.014157789 0.0038309437 0.011299228
-0.031965595 0.0050403168 0.011380045
-0.031112025 0.005570252 0.010891139
-0.028627709 0.0046141618 0.011717046
-0.027691251 0.0050702142 0.01139116
-0.026382776 0.0056593865 0.011111479
-0.025268722 0.0058899107 0.010594166
-0.011210931 0.0052181138 0.011286846
0.013397197 0.0058320756 0.011236303
0.013742051 0.0050411322 0.011323559
-0.030582422 0.0064144181 0.011326668
-0.029461076 0.007069685 0.011028758
-0.028395275 0.0074486509 0.010553701
-0.025866697 0.0061153173 0.011574466
-0.024698446 0.0063338848 0.011199484
-0.023228019 0.0066706412 0.011256696
-0.021706892 0.0068747494 0.011288655
-0.020267922 0.0069453269 0.011232835
-0.01874776 0.0069458634 0.011298921
-0.017202584 0.0068878303 0.011271617
-0.015734697 0.0068214927 0.011205312
-0.01399254 0.0069074593 0.011278526
-0.012744123 0.0067130472 0.011223335
-0.011083451 0.0066232705 0.011239089
-0.010469031 0.0067573213 0.010891419
0.013149051 0.0064982343 0.011185511
0.014218627 0.0067169368 0.011256215
0.015785819 0.0066997334 0.011313605
0.017335899 0.0067065195 0.011285545
0.018795762 0.0067434255 0.011158511
0.020208143 0.0067293341 0.011210191
0.021798536 0.0067194426 0.011247185
0.023251927 0.0067266333 0.011209825
0.024760403 0.0067229313 0.011232421
0.02623884 0.0067117 0.011258666
0.027747372 0.0067167198 0.011243736
0.029202618 0.0067155669 0.011255358
0.030734643 0.0067231893 0.011213697
0.032165844 0.0067140236 0.011249591
0.033723433 0.0066748741 0.011368649
0.035312783 0.0067240982 0.011211729
0.036677212 0.0067146327 0.011247094
0.038216606 0.0066784681 0.011355158
0.039716735 0.0067364858 0.0111536
0.041228425 0.0066953711 0.011281797
0.04268774 0.0067278808 0.011168499
0.044210751 0.0067297081 0.011161272
0.045748189 0.0067097829 0.011234988
0.04727624 0.0067237807 0.011159779
0.048204672 0.0069911713 0.011330165
-0.028799307 0.0077407677 0.011530456
-0.027770584 0.0081030894 0.011267979
-0.026326118 0.008617091 0.011259737
-0.024951778 0.0088697998 0.010857453
-0.013772988 0.0081547685 0.011254906
0.04790454 0.0089229206 0.011939174
0.048204783 0.0082473205 0.011184352
-0.024587573 0.0091025187 0.011503519
-0.023197539 0.0092660384 0.011272618
-0.021762246 0.0093855122 0.01120936
-0.020305457 0.0094547933 0.011306998
-0.018708568 0.0094550066 0.011226274
-0.017272361 0.009404406 0.011297427
-0.01573341 0.0093613714 0.011254977
-0.014068158 0.0092413705 0.011283481
-0.012778537 0.0092883436 0.011190146
-0.011217103 0.0092929397 0.011235764
-0.0097572692 0.0093258405 0.011190293
-0.0082242694 0.0097920848 0.011226282
-0.0073775016 0.010387215 0.01127749
0.010157587 0.010355664 0.011225554
0.011229864 0.009906387 0.011236094
0.012632539 0.0095018735 0.011335502
0.014247146 0.0093183285 0.011260561
0.015750486 0.0092856083 0.011283888
0.017263589 0.0092859101 0.011266446
0.018804861 0.0092878705 0.011242511
0.020291265 0.009287497 0.01123767
0.021823386 0.0092926482 0.011181071
0.023237374 0.0093124053 0.011186161
0.024763046 0.0093275616 0.011229715
0.026232671 0.0093238233 0.011244892
0.027645517 0.0093149124 0.011280973
0.029295944 0.0092928149 0.011370336
0.030705372 0.0093198819 0.011261061
0.032047141 0.0096354857 0.011281349
0.035441957 0.0099756513 0.011249216
0.036688048 0.0097889174 0.011237455
0.038247731 0.0097992094 0.011176788
0.039800361 0.0097718677 0.011316941
0.041259386 0.0097864773 0.011242862
0.042797666 0.0097725876 0.011325757
0.044259712 0.0097741242 0.011300263
0.045708425 0.0097844107 0.011249222
0.047345441 0.0095390212 0.011167997
0.048033673 0.0090379314 0.010890962
-0.006652812 0.010937798 0.011246364
-0.0054143709 0.011717478 0.011223913
0.0074574319 0.011975826 0.011386693
0.0082445452 0.011501652 0.011289961
0.0095407879 0.010715637 0.011166964
0.032345314 0.011375907 0.011208637
0.033799175 0.011817806 0.011253357
0.035119932 0.011417543 0.011257261
-0.0047644489 0.012092351 0.011172369
-0.0037707353 0.012502699 0.011190588
-0.002284802 0.013004212 0.011281716
-0.00068413431 0.013337637 0.011277734
0.00072004611 0.013458865 0.011274128
0.0022404499 0.013421283 0.011122023
0.0037390967 0.013233854 0.011168222
0.0053209634 0.012834136 0.011245697
0.0067250705 0.012289938 0.01127287
0.0012229763 0.013501232 0.011201074
-0.0047022719 -0.012114589 0.012798829
-0.0037148206 -0.012516247 0.012746823
-0.0023594666 -0.01298178 0.012729925
-0.00074619241 -0.013322152 0.012733082
0.00074109837 -0.013453475 0.012795235
0.0022196257 -0.013422389 0.012800017
0.0037709719 -0.013224903 0.012787612
0.0052677579 -0.012848026 0.012713273
0.0066900169 -0.012299463 0.012859129
-0.0065908167 -0.010975519 0.012762096
-0.005518815 -0.011644584 0.012734189
0.0074614938 -0.011970094 0.012637436
0.0081872391 -0.0115246 0.01274696
0.0093965996 -0.010774061 0.012667027
0.023636917 -0.010521855 0.012361247
0.024804814 -0.010518402 0.012367457
0.025983252 -0.010513704 0.012311895
0.027716283 -0.010516884 0.012363249
0.02921905 -0.010521052 0.012341583
0.030855343 -0.010514236 0.012314046
0.032369271 -0.011149192 0.012682455
0.033795089 -0.011467021 0.012748939
0.035067014 -0.011188259 0.012727899
-0.027029898 -0.0090451138 0.013407991
-0.026249297 -0.0091212997 0.013072252
-0.024717717 -0.0093103833 0.012810773
-0.023191467 -0.009441589 0.012823309
-0.021720862 -0.0094739143 0.01278921
-0.020274116 -0.009431256 0.012729981
-0.018766887 -0.0092932759 0.012805642
-0.017228553 -0.0091963727 0.01265265
-0.015751194 -0.0091296518 0.012436491
-0.014295084 -0.0090796603 0.012252795
-0.012916107 -0.009049546 0.012122272
-0.011265893 -0.0090510743 0.012162171
-0.0095469737 -0.009100588 0.012404514
-0.0082848612 -0.0096420459 0.012809107
-0.0073402985 -0.010389327 0.012756318
0.010117402 -0.01032137 0.01279685
0.011263339 -0.0097351577 0.012826749
0.012674711 -0.0092686741 0.012653484
0.014079263 -0.0090864161 0.012330249
0.016018258 -0.0090494649 0.012159377
0.016964095 -0.009056069 0.012149042
0.018741101 -0.0090548974 0.012173641
0.020207124 -0.0090573104 0.012180822
0.021730682 -0.0090595493 0.012180043
0.023365518 -0.0097830594 0.012641732
0.024725057 -0.010042889 0.012822411
0.02627258 -0.0100257 0.012846813
0.027788479 -0.010013295 0.012876832
0.029197147 -0.010038038 0.012817401
0.030772239 -0.010037174 0.012832635
0.032026239 -0.010059149 0.012982773
0.035410143 -0.0096815703 0.012791546
0.03677905 -0.009369961 0.012727406
0.038327292 -0.0093543008 0.012773226
0.039682291 -0.0093727959 0.012719102
0.041226972 -0.0093465941 0.012791889
