# .PCD v0.7 - Point Cloud Data file format
VERSION 0.7
FIELDS x y z
SIZE 4 4 4
TYPE F F F
COUNT 1 1 1
WIDTH 1287
HEIGHT 1
VIEWPOINT 0 0 0 1 0 0 0
POINTS 1287
DATA ascii
0.032480072 0.014680785 0.036174323
-0.030172735 0.016127609 0.036442019
-0.028694648 0.016476812 0.036666375
-0.027247442 0.016664879 0.037203249
-0.025152203 0.016932311 0.037003573
-0.023106735 0.016641079 0.037037775
-0.02079675 0.016524252 0.037139725
-0.018824946 0.016693 0.036972743
-0.017299432 0.016537232 0.037144098
-0.014647095 0.016596574 0.03694341
-0.012764234 0.016789429 0.037017372
-0.011239306 0.016618002 0.036640234
-0.0092237331 0.016618002 0.037133139
-0.0073366677 0.016618002 0.036778189
-0.0050007789 0.016870633 0.036900915
-0.0029216737 0.016732708 0.036975071
-0.00091065938 0.016641079 0.037031747
0.0010633894 0.016468002 0.036671475
0.0031036423 0.016982289 0.037034027
0.0048947926 0.016754366 0.037099317
0.0069014425 0.016663652 0.037227359
0.0091074854 0.016508911 0.037145492
0.011121092 0.016524252 0.037006035
0.012803479 0.016693002 0.036904845
0.014811605 0.016468002 0.03671658
0.017138267 0.016728526 0.036954727
0.019044552 0.016608628 0.036733482
0.021065952 0.016861752 0.037149027
0.022693545 0.016693002 0.036998209
0.025082724 0.016858628 0.036720123
0.026921481 0.016669054 0.037138708
0.028904911 0.016328955 0.036762975
-0.050382327 -0.027262544 0.038646873
-0.048806336 -0.027195266 0.039030775
-0.047980301 -0.026471037 0.039325416
0.053307589 -0.026901893 0.039071038
0.054461375 -0.027136914 0.039137617
-0.050624996 -0.025213426 0.03842127
-0.048582979 -0.025326043 0.038861014
-0.047940183 -0.025103524 0.039514519
0.053221691 -0.025131596 0.038881764
0.054582357 -0.02489616 0.039181389
-0.05066964 -0.022739043 0.03831093
-0.048880104 -0.023255529 0.039123446
-0.047938235 -0.023172257 0.03929827
0.053202268 -0.023027638 0.038830612
0.05469013 -0.023145486 0.038800795
-0.050726712 -0.021591233 0.038192
-0.048799973 -0.020527329 0.038736045
-0.047879145 -0.021023098 0.039311308
0.053174749 -0.020508613 0.03860347
0.054642137 -0.021199031 0.038741235
-0.05041467 -0.01920273 0.038260091
-0.048900638 -0.018997947 0.038965579
-0.047842503 -0.019028101 0.039049547
0.052999154 -0.01912112 0.039260481
0.054497235 -0.018856585 0.038728319
-0.050399542 -0.017007539 0.03809876
-0.049567152 -0.016765786 0.03907251
-0.04770112 -0.017317269 0.039187938
0.052900311 -0.017064817 0.039152682
0.054498952 -0.017386116 0.038436364
-0.049278077 -0.014966414 0.039207321
-0.047620796 -0.015117502 0.038815904
0.052933116 -0.014900018 0.038989596
0.054071724 -0.015390404 0.038974274
-0.0492961 -0.013023218 0.038834903
-0.047400519 -0.013117093 0.038907245
0.051836442 -0.012926596 0.039547209
0.05322383 -0.013179232 0.039039519
-0.049008146 -0.011073701 0.038757384
-0.047101509 -0.010892717 0.039203361
0.05144269 -0.010784985 0.03949894
0.053132884 -0.011083939 0.038663227
-0.048605833 -0.0090931514 0.038879652
-0.046880525 -0.0089433575 0.039189
0.051422793 -0.0092982175 0.039024159
0.052861158 -0.0090351282 0.03923431
-0.048296984 -0.0072366279 0.038648069
-0.047245428 -0.0068362467 0.039003305
0.050814353 -0.0072937682 0.03912437
0.052472863 -0.0068872962 0.038955566
-0.048110124 -0.005446441 0.038028892
-0.047233135 -0.005118066 0.038990375
-0.045984082 -0.0040444867 0.038980089
0.049411345 -0.0046050185 0.03972815
0.050861787 -0.0048503736 0.038950842
0.052219104 -0.0050194492 0.038474102
-0.047127455 -0.0026095044 0.0388542
-0.045704395 -0.0028226369 0.039081603
0.049597673 -0.0029316128 0.0386918
0.051146884 -0.0029935753 0.038777016
-0.046623524 -0.00097451929 0.039191261
-0.045291945 -0.0012601258 0.039351784
0.047369305 -0.0002192173 0.039501905
0.04857783 -0.00091029203 0.038905069
0.050442386 -0.001089539 0.038842123
-0.046284236 0.00026093717 0.038725678
-0.044900078 0.0013370388 0.039197687
0.045715436 0.0014215814 0.039811373
0.047277391 0.00089310238 0.038912229
0.04879323 0.0011032446 0.039107688
0.050096352 0.00017297905 0.038487837
-0.045107607 0.0030510097 0.038637925
-0.043640673 0.0031332704 0.039248351
0.043550387 0.003541145 0.039716743
0.045042705 0.002858286 0.039323118
0.04702767 0.0030113407 0.038999114
0.048501253 0.0027284741 0.03853805
-0.044365466 0.0048243855 0.039017163
-0.042631675 0.0055200979 0.039127022
0.039371558 0.0051738648 0.039912287
0.040845491 0.0050445027 0.039739996
0.043048408 0.0049410407 0.039051004
0.045223173 0.0051890444 0.038937464
0.046481632 0.0050519458 0.038636461
-0.042983517 0.0071359677 0.038762651
-0.040962059 0.0072233793 0.039099012
0.036698803 0.0074588605 0.039461832
0.039231788 0.0070440266 0.038868412
0.040994518 0.0069876318 0.038882107
0.042920884 0.0070793959 0.039136007
0.044937607 0.0065658488 0.038539339
-0.042278219 0.0083593931 0.03810522
-0.040970102 0.0088875806 0.038962074
-0.039255198 0.008861973 0.0391609
-0.037652113 0.0097043775 0.039778881
0.035195053 0.0092245955 0.038912751
0.037056182 0.0087562595 0.038649995
0.038645167 0.0089933453 0.039065104
0.040691372 0.0090210279 0.038702518
0.042977497 0.0083937719 0.03815978
-0.040092696 0.010396434 0.038504574
-0.038638685 0.011181655 0.038445987
-0.037002388 0.010793622 0.039265402
-0.034728386 0.011606355 0.039124031
-0.03394172 0.011590169 0.039694723
0.033057828 0.011363567 0.038744375
0.034863725 0.011222008 0.039291598
0.036908936 0.010701546 0.038522583
0.038542811 0.010367197 0.038251016
-0.036457077 0.012494847 0.039020862
-0.034632444 0.013292585 0.038824473
-0.033098128 0.012950441 0.039105307
-0.030862162 0.013054413 0.038926415
-0.029170388 0.013541389 0.038870733
-0.026822388 0.013818738 0.039306432
0.028719502 0.013730927 0.039437983
0.031368628 0.012990662 0.039041266
0.032844242 0.013306747 0.038866799
0.034387887 0.012066189 0.0388957
-0.032759286 0.014175855 0.038724344
-0.031124962 0.014608975 0.038882982
-0.02903598 0.014825267 0.039005417
-0.026667595 0.014984773 0.039274529
-0.025258739 0.014672962 0.0388189
-0.022781964 0.015500184 0.039316963
-0.021273628 0.01581132 0.039663494
0.020563902 0.015931677 0.039767161
0.023117078 0.015514366 0.039312012
0.02482974 0.015221052 0.03896004
0.026816171 0.0147499 0.038951322
0.028886385 0.014887503 0.038701046
0.030816454 0.01463483 0.038740143
-0.026403241 0.01632924 0.038316153
-0.02466746 0.01650239 0.039102457
-0.022916453 0.016975509 0.038818348
-0.020828038 0.016768001 0.038759299
-0.018792588 0.016558001 0.038944028
-0.01671092 0.016263457 0.039281093
-0.014942319 0.016722349 0.03910175
-0.012900132 0.016558003 0.038893692
-0.01118934 0.016558003 0.039147414
-0.0093210489 0.016918002 0.038848698
-0.007259469 0.016468002 0.038883433
-0.0045466213 0.017030502 0.038784832
-0.0030162553 0.016596574 0.039003693
-0.00099268358 0.016641079 0.038978614
0.0007815088 0.016524252 0.039096687
0.003272447 0.016558003 0.039008848
0.0048985058 0.016508911 0.038936865
0.0070656058 0.016631637 0.039082818
0.0091239186 0.016580502 0.039177511
0.011010786 0.016693002 0.039198484
0.013012175 0.016918002 0.039029144
0.015147386 0.016625501 0.038900681
0.017059213 0.016386183 0.039117809
0.018846201 0.016631637 0.039028499
0.020897556 0.016623111 0.038970962
0.022911409 0.016983621 0.039086677
0.025174201 0.016654918 0.038930014
0.026727905 0.016302602 0.038686883
-0.0490028 -0.027214659 0.04113074
-0.047949046 -0.026832135 0.040975615
0.051611863 -0.027200898 0.041583501
0.052955903 -0.027107688 0.041170355
0.054012321 -0.027514139 0.040320948
-0.049392078 -0.025386436 0.040644523
-0.047920413 -0.024828261 0.04099527
0.051232286 -0.024795651 0.041617371
0.053020347 -0.024997493 0.040943917
0.054013155 -0.025433227 0.040293552
-0.049331337 -0.022878664 0.040693372
-0.047895055 -0.022984197 0.041047651
0.051295549 -0.022854406 0.041475151
0.053189453 -0.023068853 0.040764458
-0.04925178 -0.021193888 0.040949952
-0.047844864 -0.020914491 0.040702689
0.051074646 -0.021549501 0.041630156
0.052992545 -0.020899944 0.040676855
0.054024488 -0.021046348 0.04001011
-0.049149673 -0.01898073 0.040916182
-0.04775957 -0.019160099 0.040918004
0.051043853 -0.018900761 0.041436188
0.052973453 -0.018973386 0.040686119
-0.049032517 -0.016953371 0.040880892
-0.047649935 -0.01694279 0.041268185
0.051323533 -0.017048227 0.040907312
0.053091258 -0.017044423 0.040868398
-0.048902951 -0.015008111 0.040660039
-0.047494393 -0.014905634 0.041131988
0.049977973 -0.014923217 0.041901693
0.050978355 -0.014874728 0.040936187
0.052749123 -0.014814208 0.040975448
-0.048695251 -0.013120255 0.041143786
-0.047285639 -0.012713674 0.041285958
0.04992298 -0.013185976 0.041675605
0.051157095 -0.0127615 0.040819805
0.052525178 -0.013059243 0.040896311
-0.048480552 -0.011063182 0.040838655
-0.047057759 -0.010683035 0.040819041
0.049442664 -0.011287143 0.041694619
0.051009223 -0.011128231 0.041100916
0.052501839 -0.01070418 0.040360905
-0.048209157 -0.0090960851 0.040843565
-0.046877779 -0.0095289545 0.04129301
0.049244031 -0.0085014831 0.041187789
0.050941434 -0.0093145752 0.041111778
0.052276492 -0.009733852 0.040367
-0.047299996 -0.0071437117 0.041344218
0.049423154 -0.0068568047 0.040863652
0.050786443 -0.0068010623 0.041128423
-0.046465885 -0.0050929147 0.041035291
-0.045870215 -0.0043248264 0.041199036
0.047000896 -0.0049343402 0.041652195
0.049110301 -0.0052183648 0.04095073
0.050598498 -0.0049486505 0.04065378
-0.046976667 -0.0029942526 0.040965192
-0.045602627 -0.0031040944 0.040866647
0.045322001 -0.0030753613 0.041825131
0.047197688 -0.0029301865 0.040848359
0.04899418 -0.0031751397 0.041086797
0.05010578 -0.0032678423 0.040471099
-0.046366844 -0.00090070174 0.040931936
-0.04482545 -0.00094245595 0.041289356
0.041296035 -0.00057435845 0.041864235
0.04311071 -0.00064637058 0.04165164
0.045159206 -0.00079040241 0.041079078
0.046875183 -0.0012666595 0.040815435
0.048979614 -0.0013200575 0.040588591
-0.046132121 0.00027847348 0.040150542
-0.044807609 0.00095169619 0.040900446
-0.043740593 0.0016027733 0.041406184
0.039459746 0.0011829933 0.041770089
0.040492434 0.00057104137 0.041636851
0.04311927 0.0010484845 0.041038096
0.045150619 0.0011954329 0.041028295
0.047292825 0.0011390053 0.040672392
0.048499215 0.000562548 0.040037077
-0.044699296 0.0030822754 0.040991187
-0.042985544 0.0030307355 0.041246414
0.037788786 0.0037106136 0.041561455
0.039242972 0.002869026 0.041095763
0.040975954 0.0034224533 0.04133027
0.042899035 0.0029211487 0.040955357
0.044677757 0.0030265986 0.0411392
0.046689533 0.00244325 0.040340662
-0.044149507 0.0043465416 0.040706675
-0.04299796 0.0050695203 0.04097778
-0.04140861 0.0054502022 0.041091051
0.037142739 0.0051541319 0.041268785
0.039395574 0.0049754488 0.041105416
0.04064567 0.0046079829 0.041146368
0.043055411 0.0050878902 0.040653545
0.045102373 0.0044604428 0.040103685
-0.042606279 0.0066521154 0.040625323
-0.04131119 0.0069168149 0.040830556
-0.039297942 0.0074528279 0.041305859
0.03546438 0.0074045742 0.041669387
0.03655054 0.0065064812 0.041087475
0.038855497 0.0069699092 0.040735427
0.040623009 0.0065949028 0.04047377
0.042808328 0.0061451499 0.040101737
-0.040715463 0.0089197336 0.040233228
-0.038960233 0.0086554363 0.041004341
-0.037082955 0.0095149567 0.040594302
-0.035274103 0.0097381873 0.041594721
0.033874471 0.0096177869 0.041233655
0.034944519 0.0090339389 0.041042056
0.036480915 0.008895508 0.04093264
0.038315907 0.0080670267 0.040108319
-0.038594566 0.010437131 0.040523421
-0.036728658 0.011029351 0.041055724
-0.034736633 0.010878054 0.041309569
-0.032994505 0.010900778 0.041174531
-0.030949144 0.011357061 0.041288208
-0.028755046 0.011416284 0.041626096
-0.027220562 0.011616318 0.041939981
0.031288862 0.011492493 0.041578121
0.033003651 0.010780364 0.041256506
0.034813359 0.010781474 0.04090732
-0.034650203 0.012464338 0.040522646
-0.03266177 0.012778472 0.04107837
-0.030826781 0.013143444 0.041003861
-0.029063225 0.01295618 0.041256852
-0.027289461 0.012648804 0.041084379
-0.025036151 0.013512911 0.041177467
-0.023739409 0.013970743 0.041635118
0.02536728 0.013953593 0.041359838
0.027289955 0.013495491 0.041136224
0.029087091 0.012813832 0.041146822
0.030966783 0.012661205 0.040996213
0.032837436 0.012595582 0.040645026
-0.030083517 0.014059624 0.040279586
-0.028596699 0.014240858 0.040498178
-0.026611041 0.014577134 0.040807161
-0.024864677 0.014983599 0.040784519
-0.02270584 0.014565779 0.041253354
-0.020901632 0.015164432 0.041223183
-0.019139901 0.015514764 0.041433025
-0.016717121 0.015854051 0.04175856
-0.015813349 0.015977779 0.041850973
0.01793357 0.015328656 0.04180491
0.019301752 0.015537024 0.040955238
0.020607289 0.015428956 0.040652018
0.022792956 0.014886454 0.041026659
0.024756996 0.015044919 0.041165646
0.02703785 0.014889823 0.040908515
0.02879185 0.014544612 0.041073401
0.030375687 0.014066831 0.040608175
-0.022819674 0.01642164 0.040594909
-0.021038584 0.016903266 0.040734474
-0.018983049 0.016946193 0.041101821
-0.016902387 0.016869016 0.041036423
-0.014809964 0.017030498 0.041097872
-0.012953153 0.016524252 0.041250661
-0.011259608 0.016586423 0.041179843
-0.0088774208 0.016732708 0.041067921
-0.0070823538 0.016648002 0.041153088
-0.0048178528 0.016732708 0.040924478
-0.0032373646 0.016754366 0.041238759
-0.0011850903 0.016508911 0.040990293
0.00098985806 0.016760502 0.040917113
0.0028255905 0.016468002 0.040877745
0.0051207771 0.016693003 0.041004583
0.0070004249 0.016693002 0.040828176
0.0088282628 0.016423002 0.041064054
0.011056432 0.016768001 0.041030869
0.012946094 0.016812118 0.040999919
0.014877524 0.016970944 0.040890057
0.017014071 0.016959842 0.04106896
0.019046683 0.017035568 0.040885944
0.021101004 0.016424051 0.04145766
0.022443315 0.016452143 0.040854864
0.024186727 0.016063768 0.04081564
-0.048943363 -0.027277391 0.042833142
-0.047837108 -0.026826257 0.042983271
0.047441475 -0.027069125 0.043949872
0.049420852 -0.027134581 0.043227624
0.051171076 -0.027157199 0.043023374
0.052266698 -0.026743418 0.042506188
-0.049202226 -0.024616854 0.042717867
-0.047794446 -0.024974681 0.043053545
0.047613245 -0.025266454 0.043862086
0.049231835 -0.025699709 0.043122139
0.051043943 -0.024835691 0.043162875
0.052542448 -0.024883086 0.042231452
-0.049172688 -0.022870198 0.042736191
-0.04773207 -0.022738561 0.043125689
0.047605298 -0.023699686 0.043836243
0.04927475 -0.022977583 0.043028463
0.050999146 -0.022921709 0.043099172
0.052209456 -0.023296515 0.042516202
-0.049052976 -0.021004228 0.043020654
-0.047837324 -0.021743163 0.042175643
0.047200568 -0.021022554 0.043873075
0.049062971 -0.02098817 0.04306661
0.050769947 -0.020740468 0.04310995
0.052362636 -0.020970752 0.042234313
-0.048921544 -0.018732043 0.043208439
-0.047622144 -0.019159794 0.042961299
0.047264554 -0.018783761 0.043716788
0.049141161 -0.019303104 0.042906076
0.050916366 -0.018930664 0.043151967
0.052315094 -0.019080043 0.042104013
-0.04878654 -0.016843943 0.043173544
-0.047398686 -0.017149765 0.043300916
0.045740835 -0.016765609 0.043966841
0.047116429 -0.017222529 0.043659415
0.049169742 -0.01677799 0.042667966
0.050381396 -0.016893391 0.04304288
0.052003153 -0.016434193 0.042140111
-0.048636142 -0.014789938 0.043041401
-0.0473512 -0.014940369 0.042614739
0.045221865 -0.014923189 0.043890506
0.046745565 -0.015066996 0.043574613
0.049243532 -0.014801401 0.043046795
0.050940372 -0.015197706 0.042903453
-0.04854349 -0.013293959 0.0427882
-0.04710906 -0.013287355 0.042939164
0.043204628 -0.012814149 0.04387407
0.045202058 -0.012643576 0.043670502
0.047224402 -0.01314018 0.04319426
0.049263727 -0.013066229 0.043220986
0.050625127 -0.012914984 0.042793758
-0.048269749 -0.011267274 0.042873099
-0.046956945 -0.011072455 0.042353008
0.041994166 -0.010839432 0.043904848
0.042532846 -0.011012097 0.043784074
0.045217093 -0.010831843 0.043455269
0.046930566 -0.010933219 0.042981833
0.049006663 -0.010933629 0.043415461
0.05054982 -0.011404401 0.042572901
-0.048112307 -0.0095493626 0.042453941
-0.046972189 -0.008892552 0.043275028
0.04146589 -0.0091592986 0.04387071
0.042775426 -0.0091264201 0.043492123
0.045011058 -0.0090834294 0.043247048
0.047377616 -0.008841143 0.04306693
0.048901234 -0.0089423675 0.043180104
0.050370812 -0.0091970311 0.04223175
-0.046526261 -0.0072831986 0.043090221
-0.045848142 -0.0068726167 0.043549165
0.041275874 -0.0070573185 0.043573633
0.042759392 -0.0071447729 0.043182012
0.04524577 -0.0067158993 0.042906865
0.046975438 -0.0070487247 0.042722315
0.049016435 -0.0068800151 0.042618822
-0.046955548 -0.0046483167 0.042919263
-0.045598239 -0.0052254614 0.043070246
0.039893985 -0.0043575121 0.043794572
0.041109126 -0.00500467 0.043220699
0.043287959 -0.0053243418 0.04302014
0.045136891 -0.0048824316 0.04305147
0.046986386 -0.0049984828 0.043018378
0.048521012 -0.0054013547 0.042533319
-0.046247661 -0.0027671992 0.043384355
-0.045068026 -0.0032872879 0.042978484
0.039696049 -0.0027640008 0.043378633
0.041031327 -0.0028636334 0.042727251
0.043069392 -0.0028943934 0.04274172
0.044821199 -0.003362898 0.042808961
0.047001 -0.0030642974 0.042632103
0.048133902 -0.0033226777 0.042107806
-0.046133652 -0.0011944821 0.042253375
-0.044791993 -0.0011598126 0.043015499
0.039145216 -0.00088675745 0.043110877
0.040987775 -0.0010914414 0.04339521
0.043166529 -0.0012225825 0.042898208
0.044841006 -0.0010671706 0.042824879
0.046482094 -0.0017085611 0.042428277
-0.044684865 0.0013476989 0.043118291
-0.043056931 0.0010088488 0.043292273
0.037745371 0.0017480375 0.043656282
0.038587052 0.00086152059 0.042806711
0.040361617 0.0013551209 0.043216597
0.043047674 0.00091537234 0.042583436
0.044788048 0.00053607719 0.042257398
-0.044155285 0.0029487736 0.042512242
-0.043017 0.0029836525 0.042913772
-0.041023895 0.0033852896 0.043829679
0.037352998 0.0031148114 0.043126319
0.039270099 0.0032718501 0.042721901
0.041003197 0.0025623734 0.042398471
-0.042987574 0.0046229241 0.042623751
-0.04086946 0.0047682365 0.042948395
-0.039291374 0.0057477439 0.043258891
0.036556765 0.0053005717 0.043049991
0.038469903 0.004874933 0.042811256
-0.040779471 0.0067148008 0.043174498
-0.039292373 0.0068306751 0.042840082
-0.037382551 0.0071550086 0.043271504
-0.035631914 0.0079146419 0.043460544
0.03549007 0.0068898909 0.042774253
0.037022084 0.0069996514 0.042941123
-0.040381134 0.0080647357 0.04204062
-0.038530052 0.0085840877 0.043107945
-0.036889575 0.0093305316 0.043117911
-0.034856103 0.0091034127 0.042925265
-0.032936782 0.0092092035 0.043061871
-0.031178616 0.009085875 0.043436095
-0.029107317 0.0097349165 0.043173682
-0.027602205 0.0099460185 0.043964081
0.031893849 0.0099747926 0.043772623
0.033131253 0.0092011979 0.043414611
0.035187501 0.0092324065 0.043068033
0.036175754 0.0084716398 0.042513546
-0.034804173 0.010783014 0.042740285
-0.033102088 0.011077261 0.043043323
-0.031191083 0.010799157 0.042749945
-0.029032588 0.011152345 0.043169025
-0.026474653 0.01135872 0.043346528
-0.025692912 0.011883174 0.043544531
0.029334487 0.011810729 0.042922541
0.030754792 0.011248387 0.042937621
0.033212662 0.011118311 0.042914912
0.034230135 0.010767902 0.042263199
-0.032476474 0.012062861 0.042124368
-0.030556167 0.012157384 0.042527124
-0.029232223 0.012476887 0.04245596
-0.027321268 0.012714413 0.043190666
-0.025120415 0.012885474 0.043017741
-0.023065511 0.013468627 0.043230098
-0.021286823 0.013766451 0.043933202
0.019895095 0.013353497 0.043754265
0.020921335 0.013399675 0.043587256
0.022920752 0.013487427 0.043118466
0.024890471 0.013276482 0.042830259
0.026939493 0.012801783 0.043276794
0.029000729 0.012907693 0.042764768
0.031265881 0.012423553 0.043103497
0.032497294 0.012057676 0.042355787
-0.024591228 0.014584616 0.042863473
-0.022526605 0.015257985 0.042426512
-0.021257797 0.014945599 0.042992566
-0.01943543 0.015084912 0.042914975
-0.01697694 0.015366305 0.042646494
-0.014878118 0.015364174 0.043296549
-0.013085906 0.015666109 0.043231886
-0.011442594 0.015692782 0.043524131
0.0099106384 0.015831038 0.043926157
0.01123199 0.015642129 0.043995574
0.013298837 0.015689669 0.04326725
0.015282536 0.015237451 0.043358516
0.017097753 0.01478865 0.043162342
0.019030945 0.014922411 0.04305663
0.021160018 0.015007383 0.042870313
0.022796921 0.015036696 0.043007646
0.025010535 0.014449373 0.043487318
0.026802333 0.014359967 0.042811669
0.028639482 0.014081531 0.042212736
-0.020801453 0.016108274 0.042552833
-0.018851977 0.016456814 0.042773921
-0.016648447 0.01667841 0.043205738
-0.014977557 0.017038018 0.042937048
-0.013026937 0.016876422 0.042927522
-0.01114226 0.016889803 0.042930722
-0.0092850812 0.017098002 0.042951629
-0.0071748914 0.016789431 0.043088827
-0.0050308337 0.016378002 0.043049846
-0.0030647072 0.016573885 0.043005366
-0.00090549467 0.016355501 0.042997934
0.00096917117 0.016307289 0.04297119
0.0029785938 0.016768001 0.043041095
0.005154083 0.016648002 0.042772457
0.0069099963 0.016963001 0.043142587
0.0092642996 0.016558003 0.042820189
0.011054879 0.016172424 0.042856723
0.013051846 0.016810235 0.043158449
0.015282982 0.016682835 0.043099042
0.017060967 0.016715309 0.042680144
0.018187173 0.016700236 0.042158041
0.020530153 0.016043684 0.042290755
-0.048748497 -0.026807953 0.044687986
-0.047251739 -0.026910316 0.045167305
0.041687738 -0.026931413 0.045463473
0.042979997 -0.02710785 0.045003209
0.045182489 -0.027035968 0.045105532
0.04701354 -0.026980421 0.044889782
0.048732139 -0.02708268 0.044700991
0.050281692 -0.026500657 0.044108674
-0.048636734 -0.025250264 0.045201574
-0.047249462 -0.024970336 0.045018744
0.041719083 -0.024619201 0.045362066
0.042980012 -0.024823427 0.044677135
0.04508115 -0.024842655 0.045163337
0.046917845 -0.02467989 0.04490409
0.049346585 -0.025079815 0.044588014
0.050217248 -0.024818871 0.044128366
-0.048604205 -0.02287372 0.045125648
-0.04725394 -0.023147246 0.044909127
0.041438308 -0.02281554 0.045563187
0.043060079 -0.022961773 0.044753492
0.045123708 -0.022961929 0.045056429
0.046923421 -0.02298825 0.044946227
0.048173629 -0.022143362 0.045025766
0.050217085 -0.02227547 0.04404287
-0.048463035 -0.020759098 0.045267452
-0.047106106 -0.021074411 0.045035269
0.04149697 -0.021298956 0.045434952
0.04296032 -0.020721568 0.044689506
0.045146465 -0.020978346 0.045193631
0.046996709 -0.021269944 0.045234658
0.049176723 -0.020477923 0.044518277
0.050090473 -0.021766476 0.044097118
-0.04863406 -0.019481812 0.044589248
-0.047058854 -0.018954009 0.04482438
0.041348271 -0.018982917 0.045402944
0.043438606 -0.018973267 0.044493295
0.044983905 -0.019117508 0.044929422
0.046900488 -0.018873909 0.045236029
0.048832428 -0.018851522 0.044569489
-0.048327539 -0.01755845 0.045052812
-0.047038924 -0.017092993 0.045128807
0.041280154 -0.016988281 0.045292038
0.042835452 -0.016966121 0.04457178
0.044986546 -0.017147947 0.044575218
0.047199659 -0.016978845 0.045034137
0.048878357 -0.016786426 0.044377413
-0.048298594 -0.015184841 0.044527221
-0.047057927 -0.014949451 0.045131419
0.040966552 -0.014716068 0.045384608
0.042887028 -0.015153322 0.044373624
0.044623412 -0.014905627 0.045155279
0.0471754 -0.015054435 0.044865813
0.048552562 -0.014649718 0.044318002
-0.048091028 -0.01313827 0.04447091
-0.046738937 -0.013161494 0.04533232
-0.045996357 -0.013478007 0.045854971
0.040831868 -0.012753326 0.045201249
0.042824056 -0.012987093 0.045244422
0.045218293 -0.012712924 0.045052484
0.046810854 -0.012928757 0.044743601
0.048283678 -0.01320134 0.044257831
-0.046669297 -0.010739779 0.044812534
-0.04572792 -0.011173309 0.045649122
0.041098867 -0.01139313 0.044670708
0.042982332 -0.011629795 0.045502521
0.045255151 -0.010776776 0.044826008
0.046668112 -0.011015935 0.044537552
-0.046982687 -0.0090082893 0.045104153
-0.045600753 -0.0091037881 0.045112465
0.039873198 -0.0085681984 0.045602005
0.040896513 -0.0088160364 0.044939775
0.043174945 -0.0090631116 0.045003653
0.044974145 -0.0087907845 0.044582278
0.046878856 -0.0094030453 0.044226058
-0.046581089 -0.0070910817 0.04533232
-0.04519764 -0.0072027729 0.04495807
0.039594799 -0.0066441013 0.045429397
0.040858593 -0.0070869168 0.044886496
0.043110345 -0.0068193045 0.044617295
0.044891514 -0.0072882939 0.044357087
0.046564974 -0.0077672368 0.044042669
-0.046384417 -0.0052297404 0.044765972
-0.04482054 -0.0048760888 0.045238551
-0.043892473 -0.0044539375 0.045652337
0.039535142 -0.0050709341 0.044719473
0.041286606 -0.0045461729 0.045113936
0.042977631 -0.0048410324 0.044219173
0.044402763 -0.0052774986 0.044050254
-0.046344616 -0.0039784778 0.044077687
-0.045082692 -0.0030523282 0.044517748
-0.04329735 -0.0026947875 0.045455825
0.039045997 -0.0032472902 0.044764034
0.040794741 -0.0028251866 0.044922139
0.042331085 -0.003895252 0.044140197
-0.044966944 -0.001080934 0.044594415
-0.042934436 -0.00093069044 0.045142978
-0.041896295 -0.0002961891 0.045571491
0.03865201 -0.0010496343 0.045027819
0.040572334 -0.0013508358 0.044418003
-0.04404451 0.0015014885 0.044118211
-0.043089241 0.0010221816 0.0448661
-0.041144274 0.00086031744 0.045513738
0.037642051 0.0013039154 0.044948421
0.039016291 0.0011178988 0.044419616
-0.042768758 0.0027551819 0.044724211
-0.041234117 0.0023929942 0.044415511
-0.039204206 0.003190334 0.045398906
-0.037618451 0.0036452059 0.045902211
0.037009496 0.0028291186 0.045011908
0.038649909 0.0027156752 0.044811122
-0.042251911 0.0040533822 0.04426074
-0.040856287 0.0048168129 0.044759784
-0.0389047 0.0047979574 0.04512978
-0.037019618 0.00530248 0.045036826
-0.035144754 0.0053991806 0.045545623
-0.032980412 0.0054027443 0.045726333
-0.031254873 0.0052742241 0.045854043
0.035693482 0.0052377582 0.045125984
0.037080459 0.0046677985 0.044807106
-0.038813807 0.0069491589 0.044614065
-0.036940597 0.0069430745 0.044927541
-0.035159819 0.0073267343 0.044975538
-0.033065591 0.0071749771 0.044936545
-0.031032009 0.0068037603 0.045020893
-0.029240817 0.0073736995 0.045295089
0.033522993 0.0077529652 0.045221545
0.035377789 0.007273173 0.045148492
0.036522493 0.0066853957 0.044928126
-0.036385108 0.0084227053 0.044585276
-0.034863062 0.0087867938 0.044808697
-0.032867189 0.0088424096 0.04476754
-0.030864526 0.0090522841 0.045234229
-0.029371135 0.0091429818 0.044812281
-0.027627928 0.0091202417 0.045229491
0.030661564 0.0095601846 0.045567114
0.032954879 0.0090894634 0.044694252
0.0346816 0.0089041172 0.044912301
-0.030869717 0.010289183 0.044242427
-0.029003009 0.010431494 0.044832915
-0.026967332 0.010715585 0.044855833
-0.024861915 0.011473494 0.045279969
0.019924711 0.01188081 0.045535825
0.020863207 0.011700903 0.045569252
0.023328137 0.011893842 0.045253575
0.025291661 0.011525108 0.045364961
0.027417 0.011310469 0.044912338
0.029252594 0.010958801 0.045299247
0.03092226 0.011143494 0.04479824
0.033147115 0.010248691 0.044857547
-0.026283361 0.012739118 0.044557266
-0.025141636 0.013102986 0.04474346
-0.023290308 0.012864275 0.044909917
-0.020990109 0.013272356 0.045064192
-0.019077796 0.013699313 0.045133833
-0.016926337 0.013762626 0.045654178
-0.014325919 0.013770384 0.045966841
-0.012252647 0.013914913 0.045752287
-0.011662957 0.013812758 0.045939222
0.015720159 0.013789608 0.045813784
0.017294236 0.013340413 0.04551287
0.018791178 0.013075375 0.045196701
0.021001942 0.013203438 0.045254376
0.023015013 0.013161572 0.045340322
0.024782285 0.012603407 0.04477315
0.026893327 0.013097004 0.044971619
0.028831566 0.012286962 0.045277793
0.030174868 0.012032472 0.04483318
-0.023058783 0.014276115 0.044835564
-0.020981615 0.01493072 0.044875897
-0.019060958 0.014954065 0.044967517
-0.016984498 0.014914762 0.045076538
-0.014980135 0.015070272 0.044857714
-0.013225398 0.014835122 0.044847537
-0.011052142 0.015373294 0.044965275
-0.0089342436 0.015192699 0.045049701
-0.0070108688 0.01532039 0.045344029
-0.0054104999 0.015538643 0.045262713
-0.0027220121 0.015656503 0.045283873
-0.0011957624 0.015616852 0.045378149
0.0006813191 0.015631102 0.04527463
0.0028838147 0.015480646 0.045266557
0.0049946778 0.01550923 0.045044187
0.0072170175 0.015431698 0.045060162
0.0087859994 0.015557721 0.044656243
0.010924477 0.015249338 0.044836387
0.013014018 0.014920485 0.045156423
0.014910102 0.015023372 0.045305442
0.016927512 0.014971249 0.044844475
0.018657986 0.015050043 0.044413436
0.021041809 0.014497519 0.044390414
0.025149371 0.014088775 0.044062708
-0.014876443 0.0163706 0.044269383
-0.012754742 0.01645655 0.04456687
-0.011123331 0.016609428 0.044669122
-0.0087934993 0.016896375 0.044893146
-0.0070505287 0.016782243 0.045286961
-0.0050532282 0.016622527 0.04520316
-0.0032046898 0.016732013 0.044619765
-0.00095605501 0.016986417 0.045137875
0.0010317921 0.016850358 0.044683792
0.0029962088 0.016923429 0.04538672
0.0050001852 0.016818468 0.045246471
0.0072291559 0.01696266 0.044817802
0.0089993002 0.016735312 0.045276392
0.010937098 0.016603421 0.045154713
0.012893768 0.016495552 0.044833936
0.01488246 0.016128726 0.044802327
0.016534485 0.016036339 0.044150122
-0.048250154 -0.026401969 0.046174102
-0.047202632 -0.027124008 0.047208499
-0.045766756 -0.026488479 0.047593132
0.041213479 -0.027283918 0.046902429
0.042756159 -0.027005276 0.046738204
-0.048132971 -0.024485921 0.046355933
-0.047201898 -0.024930645 0.046930686
-0.045707222 -0.02544643 0.047636788
0.040766738 -0.025011351 0.047143761
0.042989697 -0.024835436 0.046694569
-0.048125912 -0.023467174 0.046306629
-0.046874326 -0.022892186 0.047086995
-0.045676321 -0.022871025 0.047577441
0.040765975 -0.023132704 0.046911947
0.042714681 -0.023259101 0.046979826
-0.048055671 -0.020150781 0.046146996
-0.04684535 -0.021068772 0.046841398
-0.045605164 -0.020782331 0.047527321
0.040759623 -0.020981345 0.047008734
0.042872787 -0.021198824 0.046622019
-0.048008483 -0.01985525 0.046203956
-0.046997115 -0.0189355 0.047141273
-0.045448788 -0.01881727 0.047507714
0.041268524 -0.018947268 0.047273148
0.042618871 -0.018938478 0.046756066
-0.04696219 -0.017261418 0.046820085
-0.045523699 -0.016553717 0.047100425
0.040917024 -0.016786419 0.047466137
0.042363513 -0.017390836 0.046858571
-0.047022976 -0.015066534 0.047104202
-0.045138847 -0.015316824 0.04737803
0.04064941 -0.014724893 0.047080953
0.042439707 -0.014680726 0.046381999
-0.046760522 -0.012651828 0.046935365
-0.045438342 -0.012759502 0.046779457
0.040498391 -0.013057483 0.046997849
0.042537827 -0.013335774 0.046033293
-0.046600919 -0.010920688 0.046721857
-0.044924855 -0.010977558 0.047022626
-0.043826893 -0.010973069 0.047879677
0.039942004 -0.010802059 0.046564002
0.04108673 -0.011386546 0.046908356
0.042117771 -0.011061706 0.046031624
-0.046295989 -0.0093643628 0.046697583
-0.044893712 -0.0087344116 0.047166698
-0.043066159 -0.008412715 0.047880378
0.039652057 -0.0089947237 0.046970494
0.041241676 -0.008913435 0.046761949
-0.046095807 -0.0069752121 0.046135556
-0.04493323 -0.0066454224 0.046743672
-0.04296162 -0.007021944 0.047527663
0.039304815 -0.0069473633 0.047119044
0.040798184 -0.0068122316 0.046877664
-0.044781096 -0.0051094713 0.04701269
-0.043127578 -0.0048668417 0.046925742
-0.041401103 -0.0047161235 0.047893725
0.038970996 -0.0051896889 0.047134735
0.040422127 -0.0051083174 0.046962604
-0.044588685 -0.0027841285 0.046217564
-0.042629827 -0.0030616552 0.046715781
-0.040985387 -0.0030518339 0.047516465
-0.039942533 -0.0020300907 0.047710277
0.039237902 -0.0030820949 0.046973802
0.040137198 -0.0035139576 0.046623927
-0.043102656 -0.0011782331 0.046916213
-0.041147705 -0.00084808201 0.046732452
-0.039019316 -0.0008019876 0.047567375
-0.037341185 -0.00049030746 0.047973219
0.03771615 -0.00054744404 0.047071472
0.03906871 -0.0011170463 0.046721358
-0.042070225 0.00051805272 0.046911798
-0.040954094 0.00097927172 0.046832576
-0.03902775 0.0014985017 0.046494588
-0.037247855 0.00074981805 0.047481325
-0.034744896 0.0015968902 0.047430191
-0.032934263 0.0012965378 0.047526345
-0.031493206 0.0016919221 0.04773587
0.037212327 0.00084015547 0.046941437
0.038804129 0.0010406515 0.04652638
-0.040916611 0.0025970237 0.046503901
-0.03916442 0.0029654033 0.047032718
-0.037055548 0.0029803456 0.0473231
-0.034783859 0.0024791609 0.047081638
-0.032900304 0.0034753133 0.04664699
-0.031412754 0.0032541661 0.047026187
0.035705861 0.0034254252 0.047305264
0.03708918 0.0029434641 0.047170516
0.038294684 0.0024058924 0.046459079
-0.038612857 0.0047975895 0.046427175
-0.0371935 0.0048874454 0.046938561
-0.034959547 0.005014163 0.046906698
-0.033144593 0.004409296 0.047382809
-0.031381488 0.0049203569 0.046788801
-0.029375961 0.0051879277 0.04732319
0.033350792 0.0056636366 0.047943704
0.034554098 0.0049796053 0.04730479
0.036867969 0.0046393541 0.047003172
-0.036410585 0.0064853113 0.046160907
-0.034576576 0.0066329017 0.046478774
-0.032816455 0.0069636204 0.046439033
-0.030948145 0.0069198604 0.046924029
-0.0292289 0.0069378917 0.046656519
-0.02776771 0.0077448599 0.047176205
0.030968854 0.0077627175 0.047592424
0.032914288 0.0071196929 0.046983298
0.035030194 0.0064030043 0.04675813
0.036066286 0.0061948295 0.046586532
-0.028707644 0.0089797294 0.047075503
-0.027068753 0.008928298 0.047050528
-0.025739133 0.0096810078 0.047369957
0.019942058 0.0099275168 0.047955286
0.021209948 0.0094004888 0.047711447
0.022752294 0.0094597209 0.047605898
0.024893545 0.0095447684 0.047629695
0.026783308 0.0094896983 0.047438547
0.029085666 0.0092994645 0.046860557
0.031128172 0.0089828148 0.046736423
0.032492056 0.0087649161 0.046789911
0.034739442 0.0081535876 0.046000898
-0.027055599 0.010754912 0.046945632
-0.025265468 0.011274288 0.046990007
-0.023277014 0.011186059 0.04726639
0.019208513 0.011042359 0.047286276
0.021132093 0.01142995 0.047243934
0.023095042 0.010983632 0.047053352
0.024761077 0.010881055 0.04686648
0.027137509 0.01122676 0.046959564
0.029189354 0.010755851 0.047056187
0.030645013 0.010598348 0.04663533
-0.024633998 0.012348386 0.047059633
-0.023153212 0.013318595 0.046574704
-0.021293186 0.012966084 0.047182251
-0.019069973 0.012931406 0.047313787
-0.01711034 0.013187244 0.047164682
-0.014983451 0.012964138 0.047036767
-0.012815516 0.013254274 0.046947051
-0.010634594 0.013527737 0.046859354
-0.0090941396 0.013590844 0.047603711
0.0011536126 0.013978748 0.047848627
0.0031883891 0.013595792 0.047716327
0.0053321528 0.01375242 0.047511488
0.007238254 0.013764853 0.047770806
0.0097862212 0.013849321 0.047637835
0.010977903 0.01381831 0.047522485
0.01354898 0.013435761 0.047519185
0.01505889 0.013290985 0.047071613
0.017075337 0.013079387 0.047075033
0.018802322 0.013062363 0.046745066
0.021031493 0.012564179 0.04670136
0.022153316 0.012351404 0.046793755
0.025200063 0.012393564 0.046485431
0.026448894 0.012445023 0.046106562
0.028132897 0.012029354 0.046037093
-0.020438261 0.01416385 0.046603672
-0.019226061 0.014403666 0.046641242
-0.016798494 0.014426798 0.047169112
-0.014792061 0.014615514 0.04706233
-0.012799254 0.014702292 0.046961021
-0.011004642 0.014708868 0.047250871
-0.0089924382 0.015237444 0.047182012
-0.006988124 0.014840966 0.046793163
-0.0048793973 0.015287797 0.047263063
-0.0030422099 0.014728689 0.047267884
-0.00084469892 0.015127365 0.047159769
0.00073320186 0.014892932 0.047132082
0.0028349622 0.014958597 0.04715994
0.0053504715 0.014778791 0.046813142
0.0070806905 0.015102164 0.047042515
0.0091053117 0.015021143 0.046981897
0.010977919 0.014820485 0.046909694
0.013108039 0.01534236 0.046799548
0.015041057 0.014906979 0.04702561
0.01680764 0.014456958 0.046816807
0.01822396 0.014206635 0.046194285
-0.0073618428 0.016248841 0.046390612
-0.0051660286 0.016398197 0.046555199
-0.0030218093 0.016336966 0.046871807
-0.0010882257 0.01646791 0.046642136
0.00085873343 0.01639083 0.046613246
0.0053922376 0.016316753 0.046232183
0.0069686188 0.016165057 0.046476271
0.0089404117 0.016161725 0.046351619
0.010728691 0.016072286 0.046248682
-0.046655715 -0.027002515 0.048516482
-0.045005757 -0.027073229 0.048600849
-0.043590602 -0.026563201 0.0495947
0.040964179 -0.027029367 0.049040921
0.042025171 -0.026688337 0.048169196
-0.046675935 -0.025149597 0.048589159
-0.044910748 -0.024944458 0.048845243
-0.043523327 -0.024994744 0.049617212
0.041164272 -0.024839545 0.049216505
-0.046456479 -0.022920193 0.048746962
-0.045357734 -0.023250721 0.049167667
-0.043303289 -0.022964094 0.049687672
0.041083913 -0.023122592 0.048746958
0.042010833 -0.023190752 0.048037563
-0.046381686 -0.020837363 0.048718508
-0.044987008 -0.02117501 0.049067874
-0.043310635 -0.021421835 0.049611129
0.040941738 -0.020916983 0.049136333
-0.046418063 -0.018903982 0.048482705
-0.044830695 -0.019268136 0.048794337
-0.043508884 -0.018958917 0.04928264
0.039953426 -0.018260907 0.049861982
0.041073535 -0.019152584 0.048926588
-0.046380159 -0.01720364 0.048335265
-0.044986028 -0.016744034 0.048937719
-0.043129705 -0.01724449 0.049366735
0.039944943 -0.016884385 0.049609274
0.040980663 -0.01698032 0.048842791
-0.046352684 -0.015408516 0.048107937
-0.045034721 -0.015250807 0.048625413
-0.042645317 -0.015042578 0.049386442
-0.041810963 -0.015033114 0.049865756
0.039897818 -0.014960877 0.049185306
0.040748134 -0.015118813 0.048886281
-0.04464471 -0.013047569 0.048956856
-0.043221045 -0.012853906 0.049021438
-0.041308194 -0.01249418 0.049735364
0.039730076 -0.01295676 0.049016505
0.041175868 -0.01289969 0.04886318
-0.044922519 -0.011232267 0.048749942
-0.043228276 -0.011131003 0.049212936
-0.040844753 -0.010923581 0.049660888
-0.039650798 -0.010382537 0.04995504
0.03940548 -0.011106484 0.049328972
0.04097468 -0.011155689 0.048849281
-0.044572629 -0.0095529538 0.048681777
-0.043193862 -0.0088276397 0.049004614
-0.0410817 -0.0086531602 0.049108785
-0.039317138 -0.0091184713 0.049811933
-0.037530508 -0.0085866833 0.049973685
-0.034624442 -0.0088705011 0.049885485
0.03929748 -0.0092974948 0.048835773
0.040645078 -0.0090153003 0.04895838
-0.044320956 -0.0077083842 0.04842145
-0.043238625 -0.0072549083 0.049119644
-0.041102868 -0.007120952 0.048851732
-0.039071109 -0.0070930817 0.049466074
-0.037218235 -0.0071252622 0.04971673
-0.034995094 -0.0069404324 0.049588155
-0.032932665 -0.0061277696 0.04976381
0.038905565 -0.007341384 0.0488979
0.040264759 -0.0071184784 0.049044836
-0.043198328 -0.0052904547 0.048558813
-0.040832929 -0.0050177691 0.048753992
-0.039059728 -0.005071904 0.048977666
-0.036901306 -0.0051084887 0.049329132
-0.035319995 -0.0049680234 0.049254701
-0.033104952 -0.0052103312 0.049497835
0.037792396 -0.004718638 0.049925119
0.038929351 -0.0049715857 0.048997376
0.040332325 -0.0058757504 0.048001893
-0.042653088 -0.0036682612 0.048406776
-0.040910851 -0.0029486334 0.048730638
-0.038999867 -0.0028011762 0.049178235
-0.037214678 -0.0027954942 0.049073678
-0.035241496 -0.0027899481 0.048767805
-0.032961261 -0.0027791555 0.048872881
-0.031695634 -0.0027227078 0.049553234
0.037541833 -0.0027627763 0.049216878
0.039116971 -0.0031774463 0.049002424
-0.040763739 -0.0012396907 0.048563104
-0.038895838 -0.00086194958 0.049160834
-0.037021276 -0.0011187906 0.049026486
-0.034861084 -0.00097652461 0.048685927
-0.033293612 -0.0010651216 0.049170732
-0.031265426 -0.00081925537 0.049135238
0.03693869 -0.00096386956 0.049173705
0.038744833 -0.001340986 0.048935398
-0.040315595 0.00030983199 0.04811164
-0.038348313 0.0011230785 0.048549335
-0.037132561 0.0010522672 0.048858285
-0.034998391 0.0013120506 0.048963867
-0.032721266 0.001076463 0.049433898
-0.03102383 0.00074931129 0.048977561
0.035307039 0.0013361372 0.049601264
0.037204448 0.0011042076 0.049040165
0.038282614 0.00064835971 0.04834909
-0.038399085 0.0021995406 0.0480453
-0.037017487 0.0027161653 0.048159495
-0.034896791 0.0029063672 0.048368461
-0.03288801 0.0029396708 0.048534635
-0.031563781 0.0030350641 0.04911742
-0.029518338 0.0029854819 0.049386114
0.033711586 0.003536049 0.049526319
0.034868356 0.0031118209 0.048875742
0.037025481 0.0029146073 0.048543185
-0.030928817 0.004524326 0.048749153
-0.029011177 0.005254948 0.049287915
0.031248577 0.0052126478 0.049776666
0.033260677 0.0050289333 0.049196407
0.035001401 0.0052102506 0.04899646
-0.030139815 0.0060998527 0.048250966
-0.028848561 0.0068295482 0.049034063
-0.027110387 0.0070757582 0.04919038
0.021768117 0.0072131474 0.049389645
0.022696525 0.007030556 0.049374923
0.024758261 0.0068060332 0.049698334
0.026944021 0.0069919061 0.049646042
0.028875709 0.0070397565 0.049200468
0.03129321 0.0070070555 0.048924431
0.032843776 0.0070512434 0.048918359
0.034291726 0.0067612282 0.048243951
-0.028283263 0.0083659114 0.048774529
-0.026910264 0.008995926 0.048942529
-0.024986986 0.0092872083 0.048859961
-0.023277519 0.0095836287 0.04963832
0.019272145 0.0094017312 0.049498286
0.021064071 0.0090080174 0.048821006
0.02308649 0.0090468563 0.048793256
0.025019627 0.0093332389 0.049435068
0.02689643 0.0090614073 0.04889264
0.028960399 0.0090880021 0.048551798
0.031034308 0.0085556665 0.04883929
0.032309286 0.0081206514 0.048509598
-0.026359677 0.010258549 0.048657924
-0.024939004 0.011215283 0.048640385
-0.023023207 0.011320363 0.049256962
-0.02078261 0.010939932 0.04900457
-0.018926458 0.010980219 0.049434233
-0.016999017 0.011491041 0.048973843
-0.015021488 0.01118263 0.049170189
-0.012814426 0.011241338 0.048820645
-0.011520661 0.011161406 0.04936903
0.0033592265 0.01174153 0.049867738
0.0043794154 0.01180643 0.049615644
0.015738044 0.011950426 0.049001701
0.016963942 0.011334078 0.049099512
0.018879192 0.011143337 0.049105898
0.021225562 0.010507046 0.048874632
0.023460953 0.01062881 0.048439473
0.024798127 0.010810289 0.048293728
0.026893487 0.010353168 0.048496194
-0.022597371 0.012343429 0.048586488
-0.021050004 0.012733029 0.048716616
-0.01887079 0.012946387 0.048814796
-0.017052213 0.013061794 0.048360925
-0.0155375 0.012934921 0.049314924
-0.012913731 0.012823797 0.04919586
-0.010733369 0.013083782 0.049081612
-0.0092965448 0.012781791 0.049119227
-0.0069783945 0.013198637 0.049106527
-0.0048645926 0.01341493 0.049246345
-0.0029226178 0.013538729 0.049162857
-0.00098947482 0.013597528 0.048913538
0.0011354767 0.013193092 0.049025889
0.0031495192 0.013010955 0.04909154
0.0048869606 0.013075807 0.048929706
0.0067586643 0.012973046 0.049094267
0.0091053108 0.013091927 0.04887506
0.010969335 0.012970043 0.048967335
0.013163369 0.012728102 0.049093422
0.015057309 0.012909151 0.048938598
0.017075613 0.013062065 0.048960079
0.018752953 0.012378759 0.048643008
-0.010259366 0.014229422 0.048583735
-0.0089123556 0.014500405 0.048864841
-0.006843566 0.014960651 0.04886055
-0.0049874503 0.01491484 0.048775874
-0.0028364803 0.015085849 0.048979305
-0.0010435886 0.014859004 0.048916064
0.0010425211 0.014873381 0.049002066
0.0031981417 0.014649277 0.048639972
0.0052232333 0.014441222 0.048831038
0.0072210249 0.014515635 0.049069595
0.0090396535 0.014507678 0.049172655
0.011001801 0.014376312 0.049250782
0.012915865 0.014375929 0.048844445
0.014806289 0.01422435 0.048374865
-0.045036018 -0.026480032 0.050205618
-0.042965285 -0.027139638 0.050851982
-0.04134433 -0.027214199 0.051033646
-0.039101087 -0.027178086 0.051396027
-0.037382837 -0.027177863 0.051491331
-0.034968052 -0.026961612 0.051376209
-0.033758443 -0.02671626 0.051568449
0.03977875 -0.027159646 0.051275134
0.040959161 -0.027017452 0.0504242
-0.044753239 -0.025101116 0.050392982
-0.042937677 -0.024978135 0.051059984
-0.040856145 -0.025093183 0.050969582
-0.038751133 -0.025232391 0.051221643
-0.037024952 -0.025026811 0.051179174
-0.034787994 -0.024703285 0.051158931
-0.033503868 -0.024587918 0.05172782
0.039657094 -0.025026569 0.051340718
0.041144464 -0.025272451 0.050676122
-0.044676661 -0.023613315 0.050384969
-0.042498987 -0.022899983 0.051046744
-0.041168943 -0.022851087 0.050811112
-0.038939498 -0.022630341 0.051128197
-0.0369603 -0.022503272 0.051118966
-0.034919571 -0.022814758 0.051079452
-0.03351273 -0.022893064 0.051638689
0.039632868 -0.023092929 0.051270418
0.040845774 -0.02319571 0.051148456
-0.044147126 -0.020288603 0.050612774
-0.04276121 -0.021119352 0.051042676
-0.041345179 -0.021201037 0.050784942
-0.038970567 -0.021024244 0.051076803
-0.036815234 -0.020946708 0.05105463
-0.034972128 -0.020997411 0.051017731
-0.033210881 -0.021108076 0.051802605
0.03970981 -0.021041172 0.050932501
0.041046683 -0.021036707 0.051259518
-0.044533141 -0.019056726 0.050251283
-0.042918134 -0.019109165 0.051035184
-0.041429572 -0.01884325 0.050897688
-0.039306212 -0.019024447 0.050951712
-0.036862545 -0.018715095 0.050970167
-0.035108499 -0.019000778 0.050898716
-0.033941481 -0.018222751 0.051111743
0.03954472 -0.01899288 0.051012907
0.0408745 -0.018999493 0.051367749
-0.044078402 -0.017532505 0.050429892
-0.04275329 -0.017068118 0.051111024
-0.040891893 -0.016707808 0.051015772
-0.03923158 -0.017152322 0.05083527
-0.036566313 -0.016935466 0.050830621
-0.034999661 -0.016673926 0.050786804
-0.033610813 -0.016904516 0.051212456
0.039403766 -0.017236559 0.051034477
0.040863685 -0.017049603 0.051084667
-0.044037115 -0.015356648 0.050203957
-0.043046564 -0.015420148 0.050789092
-0.040907659 -0.014486079 0.050954614
-0.039072458 -0.014954285 0.051020946
-0.036772974 -0.015136425 0.05073138
-0.035032436 -0.014769892 0.050581727
-0.033579875 -0.015652938 0.051086128
0.039217245 -0.01533628 0.051029682
0.040827151 -0.015133843 0.050712656
-0.042999618 -0.013351752 0.050539456
-0.040719885 -0.013036033 0.050898481
-0.038826298 -0.012948333 0.050906014
-0.036927491 -0.012975277 0.051067844
-0.035377733 -0.012890719 0.050425611
-0.033465285 -0.012789811 0.050827708
0.039005395 -0.013244041 0.050937455
0.040404227 -0.012945448 0.051121611
-0.042465549 -0.011125361 0.050470468
-0.0412306 -0.010932018 0.050982382
-0.039037641 -0.010901485 0.050930362
-0.036880754 -0.010912748 0.051085584
-0.034906372 -0.011104676 0.050747383
-0.032848038 -0.011135434 0.051041666
0.037965737 -0.010088858 0.05178469
0.038703326 -0.010950954 0.050851133
0.040239215 -0.010880879 0.050827578
-0.042267762 -0.0093936315 0.050247956
-0.041225336 -0.009076695 0.050642557
-0.038964845 -0.009108712 0.051016912
-0.036920212 -0.0094817802 0.050737903
-0.034803741 -0.00946665 0.050515965
-0.032748397 -0.0089075547 0.05065072
-0.031879399 -0.0096078049 0.051739745
0.039653078 -0.0085152388 0.051127516
0.040016115 -0.0092429938 0.050720647
-0.040903177 -0.0071515325 0.050352629
-0.03885385 -0.0068499707 0.050864697
-0.036720414 -0.0070923469 0.051099751
-0.035043299 -0.006902067 0.051094253
-0.032879785 -0.0070071146 0.050739061
-0.031609669 -0.0074393512 0.051553562
0.037430853 -0.0069533014 0.051413041
0.039194409 -0.0070058806 0.051161285
-0.039348554 -0.0053253942 0.050422188
-0.037106745 -0.0054887296 0.050772153
-0.035133921 -0.005241794 0.050771497
-0.032677732 -0.0051020607 0.051252659
-0.031336628 -0.0052016489 0.051170111
0.037005417 -0.0048785354 0.051095821
0.038773477 -0.004990641 0.051083636
-0.038695261 -0.0035171194 0.050099723
-0.036668472 -0.003084037 0.050235391
-0.035094734 -0.0030819222 0.050270915
-0.033127107 -0.0026407486 0.050743937
-0.030754279 -0.0026017029 0.051056214
0.03543378 -0.002610947 0.051729608
0.037045907 -0.0030565604 0.051021289
0.038344372 -0.0031014411 0.050795473
-0.032521155 -0.0012144143 0.050577633
-0.030837934 -0.00091356575 0.051070008
-0.029829683 -4.1555002e-05 0.051523417
0.035211004 -0.0012883368 0.051286101
0.036996454 -0.001229958 0.051117577
0.038196504 -0.0015727824 0.050148267
-0.031139271 0.00092788361 0.051258136
-0.029592235 0.0010810939 0.05105222
0.033218309 0.00094539963 0.051549852
0.035122756 0.00094342249 0.051372074
0.036705561 0.0012792363 0.050277784
-0.03041265 0.0030434504 0.050935686
-0.028895529 0.0028903456 0.051139042
0.023030551 0.00300955 0.051680982
0.02523523 0.0034113419 0.051541299
0.026993625 0.0037739174 0.051619157
0.029387817 0.0028536438 0.051952556
0.031052779 0.0031307607 0.051333271
0.033241585 0.0032972125 0.051097799
0.034706369 0.002794774 0.051232114
0.036067624 0.0023349512 0.050271492
-0.03003796 0.0041476144 0.050647251
-0.029049214 0.0050620278 0.051012747
-0.027123164 0.0053285314 0.051141988
0.021467423 0.0046345694 0.051594935
0.023054773 0.0052433484 0.050927874
0.024937166 0.0054738997 0.050718237
0.026949771 0.0054505351 0.051028781
0.028910875 0.0046118582 0.050994687
0.031001326 0.0049917405 0.05118645
0.032741163 0.0046834489 0.050781384
0.034020036 0.0040014265 0.050930902
-0.028539922 0.0068760389 0.050286077
