# .PCD v0.7 - Point Cloud Data file format
VERSION 0.7
FIELDS x y z
SIZE 4 4 4
TYPE F F F
COUNT 1 1 1
WIDTH 1276
HEIGHT 1
VIEWPOINT 0 0 0 1 0 0 0
POINTS 1276
DATA ascii
-0.054714628 0.0047055837 0.0049565509
-0.053041331 0.0056462069 0.0048976787
-0.05097989 0.005671002 0.0050106249
-0.048948601 0.0056710024 0.0049043056
-0.047035504 0.0056709987 0.0050867791
-0.044973195 0.0056709996 0.0048821382
-0.043036979 0.0056710038 0.0049984246
-0.041089144 0.0051092934 0.005030619
-0.039244335 0.0051949411 0.0049610804
-0.037062876 0.0056710038 0.005014176
-0.034958635 0.0056710043 0.0050359238
-0.03305814 0.0056709996 0.0049626934
-0.031032074 0.0056710024 0.0049908254
-0.02908965 0.0056710001 0.0049783043
-0.026969921 0.0056710034 0.005036179
-0.024993014 0.0056709987 0.0050594532
-0.022985451 0.005671001 0.0049394271
-0.020984361 0.0056709996 0.0050531672
-0.019001959 0.0056710038 0.0050346176
-0.017090648 0.005671002 0.0049677663
-0.015035159 0.0056710006 0.0049875933
-0.013291048 0.0050135385 0.0050117681
-0.011028154 0.0056710029 0.0050394582
-0.0090511991 0.0056710029 0.0049851085
-0.007045907 0.005671001 0.0049805432
-0.0049957265 0.005671002 0.0050657708
-0.003055447 0.0056710001 0.0049561793
-0.0010070427 0.0056709992 0.0050354358
0.0010623785 0.0056709964 0.0050219013
0.0030280976 0.0056709978 0.0050233146
0.0051481663 0.0056710043 0.0050656144
0.0071009626 0.0056709987 0.0051657767
0.0089967037 0.005671002 0.0049140388
0.010984092 0.0056710015 0.0050270306
0.012967257 0.0051781437 0.0049596378
0.014607793 0.0052714925 0.0049957819
0.017017553 0.0056710034 0.0050738133
0.018975401 0.0056710006 0.0049985913
0.020923471 0.0056710038 0.0050210441
0.023038713 0.0056709996 0.0050397301
0.024992961 0.0056710001 0.0049898196
0.027005823 0.0056710015 0.0050505535
0.029074388 0.0056709996 0.0049786698
0.031007871 0.0056710024 0.0049802973
0.032881197 0.0056710015 0.0050153118
0.034893434 0.0056710001 0.0050221588
0.036990192 0.0056710038 0.0049929186
0.03917402 0.0053103254 0.0050848522
0.041098475 0.005154286 0.0050159572
0.042933583 0.005671001 0.0050239558
0.045001309 0.0056710001 0.0049388809
0.046989445 0.0056710048 0.0049597626
0.04891894 0.0056709964 0.0049910108
0.050970845 0.0056710001 0.0050024698
0.053040247 0.0056440816 0.0049891495
0.054690011 0.0047096438 0.004948922
-0.058365904 -0.0062628812 0.006854929
-0.056988832 -0.006329 0.0070898468
-0.054978076 -0.006329 0.0069664312
-0.053016413 -0.006329 0.006992917
-0.051028039 -0.006329 0.0070368093
-0.048946619 -0.006329 0.00703244
-0.047011215 -0.006329 0.0069540069
-0.045011263 -0.006329 0.0070358282
-0.043137249 -0.006329 0.0069308486
-0.041124642 -0.0062969876 0.0070753768
0.041278094 -0.0063171904 0.0070939437
0.042978611 -0.006329 0.0069350358
0.045086686 -0.006329 0.0069425623
0.046925157 -0.006329 0.0070231115
0.049082827 -0.006329 0.0070507606
0.050998319 -0.006329 0.0070603574
0.052964594 -0.006329 0.0070645902
0.055046372 -0.006329 0.0070614559
0.057034753 -0.006329 0.0069985483
0.058364395 -0.0062708524 0.0069065746
-0.058520578 -0.0049809497 0.0070051602
-0.040586088 -0.0050320607 0.0070761
0.040596969 -0.0049208198 0.00702326
0.05855348 -0.004982302 0.0069926991
-0.058511786 -0.0031214263 0.0070767212
-0.040598556 -0.0030465492 0.0069924169
0.040600855 -0.00297412 0.0069970484
0.058556486 -0.0030286664 0.0069688973
-0.058517966 -0.0010062821 0.0070263878
-0.040593799 -0.00095666188 0.0070248009
0.040607031 -0.00085243816 0.0069557047
0.058548119 -0.00094747311 0.0070386529
-0.058378413 0.00062639138 0.0069671753
-0.057624195 0.0015562428 0.0071827373
-0.040605742 0.00095588068 0.0069442978
0.040602732 0.00090405729 0.0069847782
0.057647727 0.0015603502 0.0070618135
0.05839505 0.00069845101 0.0070009991
-0.05658422 0.0026322459 0.0069170324
-0.055584762 0.0036105246 0.0069729695
-0.040610436 0.0030061041 0.0069127502
-0.038831893 0.0037001772 0.0070499834
-0.03702103 0.0036709986 0.0069651012
-0.034891769 0.0036709986 0.0070447074
-0.032993302 0.0036709979 0.0069915485
-0.03100667 0.0036709986 0.0070032272
-0.028976399 0.0036709968 0.0070288475
-0.026912041 0.0036709979 0.0070653311
-0.024975607 0.0036709984 0.0070270277
-0.022981286 0.0036709984 0.0070167957
-0.020950427 0.0036709984 0.0070717572
-0.018982165 0.0036709982 0.0070516584
-0.016834784 0.0036709982 0.0070280088
-0.014975945 0.0036709979 0.0069313226
-0.012921901 0.0037203985 0.0070561711
-0.010963594 0.0036709968 0.0070044789
-0.0089505743 0.0036709977 0.0070220297
-0.007015055 0.0036709977 0.0070104408
-0.0050411788 0.0036709977 0.0070071649
-0.0029680242 0.0036709979 0.0071000787
-0.0010117912 0.0036709982 0.0070831431
0.001047415 0.0036709984 0.0069724964
0.0029906034 0.0036709984 0.0068845558
0.0050731921 0.0036709986 0.0070048873
0.0070896107 0.003670997 0.0069720219
0.0090567796 0.0036709991 0.0070083155
0.01097433 0.0036709986 0.0070069679
0.012800423 0.003705828 0.0070380736
0.014879961 0.0036924442 0.006929826
0.016866298 0.0036709988 0.0069700386
0.019020839 0.0036709984 0.0069274758
0.020920334 0.0036709982 0.006937494
0.023033403 0.0036709979 0.0070241806
0.024997612 0.0036709979 0.0070619611
0.027096631 0.0036709979 0.0070235613
0.02901721 0.0036709977 0.007066322
0.030953681 0.0036709968 0.0069905818
0.032975368 0.0036709977 0.0069658412
0.034912951 0.003670997 0.007026826
0.036952481 0.0036709972 0.0070486227
0.038793895 0.0037183345 0.0070323613
0.04060578 0.0030447566 0.0069634453
0.055579353 0.0036117486 0.0070020915
0.056658473 0.0025482851 0.0069989441
-0.054627165 0.0045670662 0.0068931221
-0.053041484 0.0056007709 0.0069582965
-0.050965637 0.0056710052 0.0069658235
-0.04895781 0.0056709992 0.0070375055
-0.047041215 0.0056709996 0.0070371875
-0.044965513 0.005671001 0.0070314021
-0.043008819 0.0056709987 0.0070749503
-0.040956013 0.0052222675 0.0069133304
-0.038980387 0.0051971674 0.0069281552
-0.036913957 0.0056709996 0.0069320817
-0.035037529 0.0056710038 0.0070032156
-0.033023261 0.0056710006 0.0068792133
-0.030978171 0.0056710029 0.0070411018
-0.029068938 0.0056709992 0.0069687134
-0.026953731 0.0056709992 0.0070004095
-0.024967261 0.0056710015 0.0069907899
-0.022930393 0.0056710015 0.0069549647
-0.021005535 0.005671002 0.0069838213
-0.018992743 0.0056710034 0.0069728014
-0.017075073 0.0056709992 0.0069986023
-0.014961387 0.005671002 0.0070052953
-0.013269161 0.0050201654 0.0070104678
-0.011014816 0.0056710048 0.0069814837
-0.0089660687 0.0056710052 0.0069811172
-0.0070100678 0.005671001 0.0069770096
-0.0050393427 0.005671001 0.0070359232
-0.0030225751 0.005671002 0.0070695425
-0.00098312437 0.0056710015 0.00695389
0.00098382379 0.0056710034 0.0070004836
0.0030754975 0.0056710038 0.0069957413
0.0050879274 0.0056710029 0.007030895
0.0069793533 0.0056710015 0.0070402496
0.0090031596 0.0056710001 0.0070802849
0.010984541 0.0056709968 0.0069740587
0.012910028 0.0052198931 0.0069685667
0.014532638 0.0052810065 0.0070436969
0.016893871 0.0056710015 0.0069778375
0.019039849 0.0056709973 0.0071101668
0.02097749 0.0056709964 0.0068914592
0.022965206 0.0056710066 0.0070640249
0.025021864 0.0056710029 0.0068817842
0.027000707 0.0056709973 0.0070112874
0.029036365 0.0056709987 0.007049086
0.030957567 0.0056710001 0.0069127805
0.032950584 0.0056710052 0.0069669443
0.035033002 0.0056710015 0.0070753223
0.037019912 0.005671002 0.0070411367
0.039087757 0.0051837796 0.0069867703
0.040940255 0.0052546565 0.0069888397
0.043085601 0.0056709964 0.0070384243
0.044933707 0.0056709987 0.0070398808
0.046993725 0.0056710052 0.0070418799
0.048916627 0.0056710029 0.0070741735
0.050987855 0.0056710034 0.007014859
0.05305054 0.0055935951 0.0069531701
0.054566149 0.0046267188 0.0069504674
-0.058238477 -0.0062301713 0.0087437974
-0.056993939 -0.006329 0.0089359423
-0.054936178 -0.006329 0.0090376511
-0.052981101 -0.006329 0.009069738
-0.050984479 -0.006329 0.0089876568
-0.048974309 -0.006329 0.0090703657
-0.047048762 -0.006329 0.008995736
-0.044853956 -0.006329 0.0089365868
-0.04300471 -0.006329 0.0091470638
-0.040992107 -0.0063007791 0.0089496812
-0.039959766 -0.0062684175 0.0099338861
0.039946668 -0.0061106184 0.0099981129
0.040986978 -0.0063033919 0.0089739747
0.043031093 -0.006329 0.0090492368
0.044970941 -0.006329 0.0090043554
0.046973936 -0.006329 0.0090509243
0.048856921 -0.006329 0.0090502137
0.051020596 -0.006329 0.0090301083
0.052977793 -0.006329 0.0091310944
0.055049602 -0.006329 0.0089930063
0.057064727 -0.006329 0.0089670271
0.058220383 -0.0062167621 0.0087839393
-0.058268566 -0.0050186748 0.0090095233
-0.040221155 -0.0049605309 0.0088909771
-0.03997121 -0.0049773669 0.0098882355
0.039969537 -0.0051448136 0.0099068535
0.040222287 -0.0049163434 0.0088984687
0.058244739 -0.0050242771 0.0090245716
-0.058270007 -0.0030016811 0.0089929504
-0.040223181 -0.0028280714 0.0088829016
-0.0399675 -0.0029126168 0.0099030389
0.039975874 -0.0031911705 0.0098816119
0.040232852 -0.0029924489 0.0088562509
0.058245026 -0.0030030832 0.0090229195
-0.058271192 -0.0010236257 0.0089955926
-0.0402226 -0.0010820089 0.008885242
-0.039965168 -0.00094766653 0.0099123269
0.039975371 -0.00065732229 0.0098836049
0.040226985 -0.00097135647 0.0088797146
0.05825099 -0.00096844143 0.0089866053
-0.05819736 0.00051974785 0.0091050444
-0.057432707 0.0014797474 0.0090766931
-0.040199913 0.00094933831 0.0089757321
-0.039967529 0.0008421517 0.0099029243
0.039970536 0.00071814249 0.0099029001
0.040207639 0.00098469376 0.008956884
0.057455607 0.0014309457 0.0091133611
0.058220245 0.00051991013 0.0088685676
-0.056427673 0.0024512773 0.0090003908
-0.055417955 0.0034147787 0.00909511
-0.0402219 0.0029960342 0.0088880342
-0.038653657 0.003628114 0.0091330316
-0.036998942 0.0036709972 0.0089920713
-0.034922071 0.0036709979 0.0089364732
-0.033093613 0.0036709986 0.0089908307
-0.031040065 0.0036709982 0.009010206
-0.028999485 0.0036709986 0.0089146644
-0.026938573 0.0036709968 0.0088666696
-0.025003029 0.0036709975 0.0091141528
-0.022959175 0.003670997 0.0089827869
-0.020982113 0.0036709968 0.0090161795
-0.018881539 0.0036710002 0.0090271253
-0.01688559 0.0036709988 0.0090439189
-0.014981441 0.0036709975 0.0090510882
-0.013068611 0.0037399754 0.0090349112
-0.011032692 0.0036709977 0.0090162447
-0.0089995218 0.0036709975 0.00895721
-0.007059521 0.0036709972 0.0090596508
-0.0050420836 0.0036709993 0.0089364154
-0.0030207569 0.0036709979 0.0089766309
-0.00090648705 0.0036709986 0.0091243424
0.00091893331 0.0036709979 0.0090012532
0.002920364 0.0036709988 0.0090321898
0.0050359848 0.0036709984 0.0089704441
0.0070646331 0.0036709988 0.0090439497
0.0091037303 0.0036709991 0.0089976788
0.011046758 0.003670997 0.0090287989
0.012740591 0.0036936265 0.0089096362
0.014997782 0.003688701 0.0089995414
0.016986988 0.0036709979 0.0090171043
0.01890677 0.0036709977 0.0089615742
0.021118909 0.0036709977 0.0089966664
0.022941673 0.0036709977 0.0089976145
0.025019066 0.0036709977 0.0089639081
0.026957138 0.0036709984 0.0089857681
0.02912013 0.0036709995 0.0090161208
0.031018792 0.0036709988 0.0089185936
0.032958593 0.0036709977 0.0089709172
0.034990836 0.0036709972 0.0090744914
0.037025094 0.0036709979 0.00901224
0.038760625 0.0036231296 0.0091859261
0.040228948 0.002995762 0.0088718887
0.055401713 0.0034286107 0.0091005955
0.056419764 0.0024609307 0.0089662317
-0.054426517 0.0044727488 0.0088389991
-0.053087577 0.0054653869 0.0090116058
-0.050992738 0.0056710024 0.0090781646
-0.048949879 0.0056710006 0.008978487
-0.046912964 0.0056710015 0.00900291
-0.044870421 0.0056710006 0.0089959092
-0.043005705 0.0056709987 0.0089203389
-0.040680621 0.0052704243 0.0089435624
-0.038812175 0.0051330063 0.0089632114
-0.036993705 0.0056710048 0.0090299966
-0.034967326 0.0056710024 0.0090472018
-0.032993477 0.0056710029 0.0090072844
-0.030949326 0.0056710043 0.0089676706
-0.029027985 0.005671001 0.0089358771
-0.027075687 0.005671001 0.0091434494
-0.024983652 0.0056710015 0.0090934895
-0.022947183 0.0056710038 0.009021149
-0.020959748 0.0056710006 0.0090054441
-0.018966207 0.0056709964 0.0089999503
-0.016926674 0.0056710034 0.0090136686
-0.014998407 0.0056710015 0.009062916
-0.013296103 0.0049993964 0.008941737
-0.011027025 0.0056709978 0.0089846328
-0.0089404304 0.005671001 0.0089714071
-0.0070331646 0.005671002 0.0089918105
-0.0049984213 0.005671002 0.0089399796
-0.003038123 0.005671001 0.0091517139
-0.0010239807 0.0056709987 0.0089326808
0.0010582674 0.0056709987 0.009021393
0.0030871904 0.0056709992 0.0089696357
0.0049542035 0.0056709964 0.0089453794
0.0069920486 0.0056709992 0.0090441722
0.0089420797 0.005671002 0.0089562144
0.011089434 0.0056710024 0.0090294657
0.012950697 0.0051992005 0.0089912862
0.014591161 0.0052335318 0.0089738322
0.017027954 0.005671001 0.008823703
0.019067718 0.0056710029 0.0090399589
0.02099265 0.0056710038 0.008980928
0.022965152 0.0056710024 0.0089390622
0.024995837 0.0056710038 0.0090085864
0.026939765 0.0056709964 0.0090552764
0.029024424 0.0056709996 0.009025747
0.031011438 0.0056709968 0.0090666749
0.033045791 0.005671002 0.0089225136
0.035021301 0.0056709996 0.0089057256
0.037009981 0.0056710006 0.0088999858
0.03884691 0.0051566898 0.0090044513
0.040763862 0.0053120782 0.009093916
0.04301969 0.0056710034 0.0090338821
0.044976179 0.0056710001 0.0089939153
0.047075447 0.0056710006 0.0089580612
0.049054109 0.0056709992 0.0090087056
0.050957985 0.0056710024 0.0089859748
0.053061284 0.0054680593 0.0090100206
0.054461479 0.0044014398 0.0089236964
-0.058031399 -0.0062770578 0.010331258
-0.057077564 -0.0063051973 0.01107673
-0.055068236 -0.006329 0.010949464
-0.052950721 -0.006329 0.010955977
-0.050984818 -0.006329 0.01089278
-0.04890291 -0.006329 0.010955668
-0.046916239 -0.006329 0.011042867
-0.044967584 -0.006329 0.011006257
-0.042965449 -0.006329 0.011086773
-0.040911499 -0.006329 0.011050746
-0.039753333 -0.0062200329 0.011120631
0.039780077 -0.0062502036 0.011067178
0.041098479 -0.006329 0.011094567
0.043079212 -0.006329 0.010961758
0.045066912 -0.006329 0.011003032
0.046927322 -0.006329 0.010930992
0.049005903 -0.006329 0.011047318
0.051030818 -0.006329 0.010978658
0.052912556 -0.006329 0.010961724
0.055099681 -0.006329 0.011021825
0.057015184 -0.0063112085 0.011076504
0.058027957 -0.0060895928 0.010341044
-0.058059711 -0.0050643734 0.010242827
-0.057838615 -0.0049957177 0.01131179
-0.039718337 -0.0049402686 0.010896651
0.03968716 -0.005057605 0.011032688
0.057861861 -0.0050446689 0.011344445
0.058030397 -0.0051677106 0.010326242
-0.058056418 -0.0030828635 0.010258753
-0.0578545 -0.00298309 0.011234927
-0.039676763 -0.0030664015 0.011061671
0.039686818 -0.003056918 0.011031964
0.057881348 -0.0031219963 0.011229562
0.058049746 -0.0030555187 0.010208734
-0.058045022 -0.00078707014 0.010313831
-0.05786635 -0.0010162924 0.011177613
-0.039685786 -0.00092348008 0.01102564
0.039706878 -0.0010625889 0.010953214
0.057874702 -0.0009787106 0.011268175
0.058040991 -0.0010866618 0.010261931
-0.058046315 0.00032683153 0.010282136
-0.057439953 0.0010101635 0.011115787
-0.039709397 0.0010760335 0.010931581
0.039671998 0.0010534496 0.011092129
0.057403404 0.0010810888 0.011020907
0.058036361 0.00045264009 0.010266817
-0.05622549 0.0023104833 0.010978046
-0.055219401 0.0032768867 0.011025244
-0.039271988 0.0032554693 0.011060019
-0.037004761 0.0036709977 0.011119599
-0.034977805 0.0036709975 0.011092473
-0.033046272 0.0036709975 0.011016396
-0.031006211 0.0036709972 0.010980865
-0.028992066 0.0036709979 0.011005891
-0.026950875 0.0036709982 0.011068618
-0.025055541 0.0036709995 0.01102322
-0.023077535 0.0036709977 0.010980092
-0.020958414 0.0036709977 0.011090591
-0.019046323 0.0036709972 0.011008644
-0.016966069 0.0036709972 0.010999813
-0.015002633 0.0036709984 0.011077968
-0.012842601 0.0037168127 0.010977271
-0.011013151 0.0036709968 0.011006003
-0.0089517962 0.0036709977 0.010962996
-0.0070430608 0.0036709984 0.010846018
-0.0049256971 0.0036709979 0.010970972
-0.0030042934 0.0036709984 0.0110151
-0.0010444052 0.0036709977 0.010983794
0.0010189426 0.0036709975 0.011021074
0.0029994401 0.0036709977 0.010951626
0.0050608325 0.0036709975 0.010982422
0.0070565017 0.0036709984 0.011011817
0.0088893184 0.0036709975 0.011005362
0.0109766 0.0036709972 0.01102253
0.012763855 0.0037060259 0.010963816
0.014851633 0.0037030412 0.011009238
0.016968409 0.0036709977 0.010959135
0.019022809 0.0036709984 0.011064883
0.020990178 0.003670997 0.011082133
0.022939121 0.0036709975 0.011192613
0.025030753 0.0036709982 0.011031815
0.027051812 0.0036709986 0.010998953
0.029078333 0.0036709982 0.011152008
0.031019166 0.0036709988 0.011169631
0.033047132 0.0036709979 0.01094358
0.035017557 0.0036709979 0.011024237
0.036910843 0.0036709993 0.011127528
0.039333411 0.0031806612 0.011022929
0.05527756 0.0032220893 0.011000748
0.056284655 0.0022677712 0.010877524
-0.054279115 0.0042871623 0.010698299
-0.053113408 0.0052839513 0.010930521
-0.050986651 0.0056710015 0.010975991
-0.048961956 0.0056710048 0.010999001
-0.047006324 0.0056710001 0.010985937
-0.045015562 0.0056709973 0.011050213
-0.04307932 0.0056710006 0.010912972
-0.04096527 0.0056710001 0.011075726
-0.039015248 0.004997964 0.011029927
-0.036917668 0.0056710015 0.011044772
-0.034939408 0.0056710001 0.011022413
-0.032960363 0.0056710038 0.010897244
-0.03099128 0.0056710057 0.011073316
-0.029047342 0.0056710043 0.010991073
-0.02699085 0.005671002 0.011036993
-0.024987569 0.005671002 0.010994975
-0.02295582 0.0056710001 0.010886271
-0.021023037 0.0056709992 0.010907425
-0.018969355 0.0056709996 0.010915352
-0.016994517 0.0056710034 0.010913673
-0.01491846 0.0056710001 0.01110103
-0.013349411 0.0050257756 0.010999971
-0.011039369 0.0056709996 0.010950984
-0.0090293624 0.0056710029 0.011050827
-0.0069223125 0.0056710038 0.010910057
-0.0048610126 0.0056709964 0.010930057
-0.0029805035 0.005671002 0.011035798
-0.00091004511 0.0056709996 0.010998662
0.001015213 0.0056709987 0.01110448
0.0030262447 0.005671002 0.011005901
0.0050376495 0.005671001 0.010946373
0.0069694589 0.0056709978 0.011024076
0.0090245269 0.0056710024 0.010856553
0.011095583 0.0056710015 0.011052044
0.012979206 0.0051635625 0.010928775
0.014562928 0.0052902531 0.010917027
0.017024854 0.0056710015 0.010975163
0.019067349 0.0056710015 0.010991728
0.020965774 0.0056709973 0.011000266
0.023041805 0.005671002 0.01101894
0.025038162 0.0056710015 0.01104219
0.027073685 0.0056709987 0.010965367
0.028957747 0.0056710001 0.011003565
0.03104178 0.0056710038 0.010980501
0.033032291 0.0056709987 0.011061271
0.035002667 0.0056710038 0.010875926
0.037000883 0.005671002 0.010955884
0.039048545 0.0049046953 0.010982547
0.040992651 0.0056709996 0.010985808
0.042932425 0.0056710038 0.010959283
0.044943426 0.0056709987 0.01101047
0.046994776 0.0056710006 0.010990525
0.049040273 0.005671001 0.011071898
0.050958574 0.0056709987 0.010908064
0.053114586 0.0052481093 0.011072055
0.054249637 0.0042516664 0.010974578
-0.056868866 -0.006289084 0.012957953
-0.054957241 -0.006329 0.012968135
-0.052947924 -0.006329 0.013022637
-0.050939858 -0.006329 0.012974394
-0.049009454 -0.006329 0.0130059
-0.046904799 -0.006329 0.012976415
-0.045035999 -0.006329 0.012962786
-0.043035392 -0.006329 0.012976791
-0.040954173 -0.006329 0.012946769
-0.039467972 -0.0062959953 0.013013551
0.039395366 -0.0062781028 0.013120722
0.040974393 -0.006329 0.012976309
0.042935349 -0.006329 0.012970704
0.044945043 -0.006329 0.013098457
0.046968404 -0.006329 0.01293885
0.048966814 -0.006329 0.012889654
0.050937846 -0.006329 0.012927927
0.052919153 -0.006329 0.012927897
0.054978825 -0.006329 0.012973439
0.056962263 -0.0063004061 0.012971162
-0.057477277 -0.0049305512 0.013058782
-0.039077256 -0.0050022826 0.012984004
0.039101288 -0.0050049443 0.012925165
0.057497576 -0.0049662939 0.012981869
-0.05751067 -0.0029459947 0.012897396
-0.039090376 -0.0029767205 0.012947312
0.03910844 -0.0030328359 0.012905166
0.057499193 -0.0029226469 0.01297542
-0.057495248 -0.001001636 0.012971894
-0.039077032 -0.0010945312 0.012984644
0.039046753 -0.00093614333 0.01307773
0.057492394 -0.00098575163 0.01300264
-0.056930237 0.0011774423 0.012918161
-0.055976417 0.001961041 0.013875294
-0.039039783 0.00095179898 0.013088822
0.03908278 0.0010834481 0.01297695
0.055957317 0.0019864379 0.013818851
0.057032824 0.0010731223 0.012901871
-0.056141969 0.0021259661 0.012405202
-0.055017658 0.0030896568 0.013020778
-0.053970683 0.00389118 0.013848931
-0.039055817 0.0029912868 0.012949449
-0.036950078 0.003689901 0.013017769
-0.034960557 0.0036709982 0.012881001
-0.032961212 0.0036709975 0.012933161
-0.03102232 0.0036709972 0.012980111
-0.028952675 0.0036709977 0.012972714
-0.026985725 0.0036709982 0.012962303
-0.025107453 0.0036709995 0.013030334
-0.022953484 0.0036709979 0.013017052
-0.020900734 0.0036709988 0.013056277
-0.019024001 0.0036709986 0.013013351
-0.016997708 0.0036709975 0.013041662
-0.014978762 0.0036709977 0.013009643
-0.012951556 0.0037248072 0.01298713
-0.011048935 0.0036709984 0.013010519
-0.008981497 0.0036709991 0.012905547
-0.0070839557 0.0036709982 0.012983518
-0.0050112344 0.0036709979 0.01313336
-0.0031117257 0.0036709993 0.013048005
-0.0009780213 0.0036709986 0.013054856
0.00098433194 0.0036709984 0.013063477
0.0030201327 0.0036709982 0.013072461
0.0050796997 0.0036709972 0.01290026
0.0070581981 0.0036709988 0.012998774
0.0090856655 0.0036709977 0.013008883
0.010939039 0.0036709984 0.012964616
0.012873305 0.0037141533 0.013068146
0.014958202 0.003697267 0.012952258
0.016917028 0.0036709977 0.013028225
0.019040059 0.0036709991 0.013054758
0.020940749 0.0036709984 0.012937865
0.02302995 0.0036709986 0.013139627
0.025056707 0.0036709975 0.013080572
0.026989445 0.0036709965 0.013013144
0.029095354 0.0036709975 0.01301132
0.031047244 0.0036709972 0.012918446
0.032992676 0.0036709984 0.012977203
0.035075139 0.003670997 0.013074962
0.037037555 0.0036994859 0.012951965
0.039059807 0.0030079393 0.012979844
0.053944085 0.0039302097 0.01383757
0.055093788 0.0030184006 0.013015935
0.056118041 0.0021261738 0.012575683
-0.054098517 0.0041301185 0.012383211
-0.053059109 0.004968307 0.013007874
-0.051029634 0.0056709996 0.012949965
-0.049022991 0.0056709982 0.012955653
-0.047004189 0.0056709987 0.013019703
-0.045024637 0.0056710006 0.013048768
-0.043038722 0.0056710038 0.013037328
-0.041039627 0.0056709996 0.012951873
-0.039081201 0.0050843041 0.013022949
-0.037198 0.0053148139 0.013066442
-0.034985103 0.0056710034 0.012995768
-0.033127215 0.0056710048 0.013071824
-0.030905847 0.0056709987 0.013034302
-0.029033102 0.0056710057 0.013052772
-0.027011989 0.0056710029 0.012944261
-0.025019141 0.0056710034 0.013075124
-0.023020981 0.0056710001 0.013045722
-0.0208904 0.0056710024 0.012985112
-0.01895229 0.0056710001 0.012946277
-0.016961519 0.0056709968 0.013064189
-0.01500453 0.0056710015 0.013024991
-0.013292536 0.0050236266 0.013012068
-0.011003665 0.0056710034 0.012923487
-0.0089929439 0.0056710015 0.012972433
-0.0069605182 0.0056709978 0.012952036
-0.0050001559 0.0056710029 0.013008228
-0.0030546018 0.005671001 0.013030157
-0.0010401845 0.0056709987 0.01294328
0.0010194344 0.005671001 0.013027652
0.003027021 0.0056709996 0.013019649
0.0049799811 0.0056710015 0.013042442
0.0069289543 0.0056709992 0.01301707
0.0089674424 0.0056710024 0.013012367
0.011073765 0.0056710029 0.013027137
0.012996673 0.005113075 0.013062858
0.014576624 0.0053165825 0.013007781
0.016957747 0.005671002 0.01312904
0.018979995 0.0056710038 0.013058292
0.021056088 0.0056710038 0.013019748
0.022958469 0.0056709996 0.013040267
0.025027512 0.0056710006 0.012887228
0.027012693 0.005671001 0.013012405
0.028965773 0.0056710038 0.012914663
0.030894289 0.0056710006 0.012950619
0.033056039 0.0056710015 0.013007872
0.034997538 0.0056710006 0.012965538
0.037267841 0.0051962496 0.013079427
0.039119463 0.0051050135 0.012983227
0.040956348 0.0056709992 0.013007534
0.043125141 0.0056709996 0.012965012
0.044954393 0.0056710038 0.013011163
0.047059808 0.0056710015 0.012999183
0.048941426 0.0056710001 0.0130177
0.051045261 0.0056709964 0.013023872
0.053044859 0.0049695573 0.013050317
0.054117482 0.0041099256 0.012435256
-0.056635592 -0.0062878397 0.014879438
-0.054956172 -0.006329 0.015019359
-0.053050149 -0.006329 0.014957017
-0.050951295 -0.006329 0.014926828
-0.049023658 -0.006329 0.015036758
-0.047038119 -0.006329 0.01496806
-0.044918284 -0.006329 0.015035454
-0.042944767 -0.006329 0.014918922
-0.040956758 -0.006329 0.014964463
-0.039062023 -0.0063137393 0.015088106
-0.037981004 -0.0061945757 0.015962562
0.037989374 -0.0061038346 0.015951211
0.039012983 -0.006284887 0.014969395
0.040951911 -0.006329 0.015018383
0.042817511 -0.006329 0.015105672
0.045006845 -0.006329 0.015074763
0.047042221 -0.006329 0.015080889
0.048963234 -0.006329 0.014916983
0.050966159 -0.006329 0.014985183
0.053101845 -0.006329 0.015026144
0.05511592 -0.006329 0.014917819
0.056641039 -0.0062965285 0.014958734
-0.057008587 -0.0050058854 0.014992184
-0.038362622 -0.0049956576 0.014978225
-0.037973881 -0.0051534353 0.015977617
0.03798845 -0.005437471 0.015953163
0.038366191 -0.005009626 0.014976074
0.056982424 -0.0049859225 0.015044696
-0.056996945 -0.0030637018 0.015032431
-0.038363226 -0.0029248912 0.014977695
-0.037976082 -0.0028634507 0.015972964
0.037990265 -0.0030978306 0.015949324
0.038374208 -0.0029470115 0.014955292
0.056984361 -0.0030099065 0.015036972
-0.057022639 -0.00097133033 0.014943496
-0.038371414 -0.0010718699 0.014953764
-0.037974499 -0.0013759707 0.015976304
0.037972737 -0.00096188782 0.015986377
0.038371038 -0.0011061238 0.014962546
0.056987289 -0.00091058237 0.015025242
-0.056713849 0.0008796262 0.014899047
-0.055701472 0.0018049916 0.015372007
-0.038378261 0.00092570874 0.014931569
-0.037978522 0.0011913453 0.015967807
0.037986543 0.00099362177 0.015957186
0.03839837 0.00098353822 0.014885691
0.055755094 0.0017951486 0.015315377
0.05666329 0.00090001436 0.014886069
-0.05477659 0.0027835635 0.014990956
-0.053730827 0.0037044624 0.015283414
-0.038367696 0.0029820413 0.014965704
-0.036637262 0.0036824301 0.015018777
-0.034964584 0.0036709977 0.015027445
-0.032980274 0.0036709991 0.014978815
-0.030932505 0.0036709988 0.015036153
-0.029069765 0.0036709982 0.01510541
-0.027094528 0.0036709979 0.014926822
-0.025017023 0.0036709975 0.014944495
-0.022912791 0.0036709977 0.015073214
-0.021007515 0.0036709982 0.01509727
-0.018981939 0.0036709984 0.014994791
-0.017079562 0.0036709972 0.015062237
-0.014903649 0.0036709977 0.015112353
-0.01286823 0.0037255639 0.015030632
-0.010920191 0.0036709988 0.015093939
-0.0089474255 0.0036709982 0.014934773
-0.0069193379 0.0036709995 0.014987194
-0.005023303 0.003670997 0.014954914
-0.0030245048 0.0036709982 0.015049161
-0.00097314932 0.0036709977 0.015055228
0.00095118326 0.0036709982 0.015077611
0.0030471662 0.0036709984 0.0149293
0.0050238511 0.0036709993 0.015023986
0.0070117139 0.0036709988 0.01497349
0.0090233972 0.0036709982 0.014997585
0.01108356 0.0036709968 0.014878263
0.012779032 0.0037217378 0.014997417
0.015022474 0.0036930335 0.015024714
0.016977943 0.0036709977 0.014874838
0.018925032 0.0036709979 0.015027605
0.021032875 0.0036709977 0.015024309
0.022995029 0.0036709993 0.015000693
0.024960278 0.0036709975 0.014965773
0.027035853 0.0036709975 0.015004436
0.029100284 0.0036709986 0.014994648
0.030998832 0.0036709979 0.015066606
0.032956596 0.0036709984 0.014959087
0.035052646 0.0036709977 0.015087917
0.03673945 0.0036921389 0.014842048
0.038386099 0.0030362441 0.014919461
0.053798065 0.0036696268 0.015205796
0.054862563 0.0027183234 0.014972055
-0.052697483 0.0048231869 0.014931528
-0.05096994 0.005651705 0.015105948
-0.049033899 0.0056709992 0.014951064
-0.046966743 0.0056710043 0.014978546
-0.04501351 0.0056709992 0.015053264
-0.043015353 0.0056710038 0.015023052
-0.041031741 0.0056710006 0.014979975
-0.038747139 0.0052202144 0.015001624
-0.036848545 0.0051099155 0.015013741
-0.034964845 0.0056710015 0.015014553
-0.033020962 0.0056709964 0.014959993
-0.031122381 0.0056710024 0.015040636
-0.028979713 0.0056709996 0.015067398
-0.026982831 0.005671002 0.015038468
-0.025067691 0.0056709996 0.015103939
-0.023024375 0.0056710006 0.01496449
-0.021068221 0.005671002 0.01502504
-0.019012587 0.0056709964 0.015091222
-0.017002452 0.0056710024 0.014976226
-0.015035471 0.0056710048 0.014953711
-0.013260328 0.0050361529 0.014967538
-0.0109785 0.0056710015 0.015100949
-0.0089279916 0.0056710006 0.015042988
-0.0068957293 0.0056710038 0.014965962
-0.0049894364 0.0056710038 0.01494496
-0.0029780131 0.0056710015 0.014970378
-0.00097913737 0.005671001 0.014999476
0.00098488957 0.0056710006 0.014963686
0.0029773025 0.0056709987 0.015063809
0.0050934986 0.0056709996 0.014969129
0.007055908 0.0056710043 0.014972656
0.0090218289 0.0056710006 0.014976164
0.010982917 0.0056709987 0.014934305
0.012965652 0.0051575964 0.015034914
0.014605901 0.0052686422 0.015009933
0.017033063 0.0056710029 0.014933553
0.018971872 0.0056710043 0.015119794
0.02101811 0.0056710015 0.015069477
0.023085244 0.0056710006 0.015112038
0.024990173 0.005671002 0.01499431
0.027116287 0.0056710006 0.014937585
0.028951664 0.0056709996 0.014911532
0.031048756 0.0056709992 0.01496845
0.033092458 0.0056710015 0.015068924
0.035137057 0.0056709964 0.015125254
0.036825653 0.0051495829 0.015033554
0.038746268 0.0052648196 0.015034339
0.041002829 0.0056710048 0.015034885
0.043009199 0.0056710043 0.014950495
0.045028094 0.0056709968 0.014964388
0.047078602 0.0056710024 0.014998557
0.048968382 0.0056710029 0.014986902
0.051150981 0.005643575 0.015050308
0.05271069 0.0048182979 0.014944542
-0.056329679 -0.0062609725 0.016863039
-0.054996677 -0.006329 0.017036956
-0.053045809 -0.006329 0.016971862
-0.051018834 -0.006329 0.017027467
-0.048977047 -0.006329 0.017078537
-0.046953514 -0.006329 0.016923295
-0.044998772 -0.006329 0.01695564
-0.043069445 -0.006329 0.016908633
-0.040961515 -0.006329 0.016934892
-0.038998034 -0.006329 0.016997069
-0.037607256 -0.0062638717 0.017196195
0.037558544 -0.0062715719 0.017229363
0.038998216 -0.006329 0.017018734
0.041085929 -0.006329 0.016913617
0.042961411 -0.006329 0.016901297
0.045015104 -0.006329 0.017036272
0.046989109 -0.006329 0.017033825
0.04906192 -0.006329 0.01696315
0.050948344 -0.006329 0.016984267
0.052990437 -0.006329 0.017121924
0.054967247 -0.006329 0.017011041
0.056409188 -0.0062655117 0.016776821
-0.056411218 -0.004976687 0.017028464
-0.037504077 -0.0049889558 0.016970692
0.037511829 -0.0049448172 0.016960645
0.056458745 -0.0049356534 0.016961809
-0.056418706 -0.0029723838 0.017003013
-0.037521303 -0.0031331363 0.016934292
0.037486967 -0.0029361448 0.017013198
0.056461219 -0.0028956849 0.016951462
-0.056430984 -0.00097151916 0.016961142
-0.037504248 -0.0010572306 0.016970342
0.037457842 -0.00092762231 0.017074768
0.056419343 -0.0010297911 0.017081246
-0.056321483 0.00059876783 0.016968168
-0.055508543 0.0014995746 0.017117403
-0.037472814 0.00097716937 0.017036768
0.037486602 0.00101902 0.017013956
0.055519745 0.0015080131 0.017119635
0.056342036 0.0005687353 0.016987577
-0.05444527 0.0025337879 0.016981618
-0.053447958 0.0034398951 0.01713369
-0.037306238 0.0030396965 0.016910886
-0.035019461 0.0036805137 0.017143572
-0.033109207 0.0036709977 0.016955515
-0.030949775 0.0036709993 0.017014833
-0.029006874 0.0036709993 0.017083131
-0.027021751 0.0036709984 0.016995428
-0.024950815 0.003670997 0.016935199
-0.022990044 0.0036709977 0.017018108
-0.020939702 0.0036709986 0.017073618
-0.01903425 0.003670997 0.016990663
-0.017022705 0.0036709993 0.017042477
-0.015070523 0.0036709977 0.017012645
-0.012931401 0.0037258626 0.016967284
-0.010969242 0.0036709972 0.01695993
-0.0090114539 0.003670997 0.016983151
-0.0070764073 0.0036709977 0.017038556
-0.0049240356 0.0036709988 0.016963003
-0.0030197666 0.0036709977 0.017045153
-0.0010234184 0.0036709975 0.016991932
0.0010381178 0.0036709975 0.017008934
0.0029684813 0.0036709977 0.016917754
0.004959669 0.0036709979 0.016946496
0.0070568412 0.0036709979 0.017051909
0.0089639509 0.0036709968 0.017046185
0.010944943 0.0036709984 0.017012915
0.01276714 0.0037073093 0.017048903
0.014813752 0.0037056054 0.016882749
0.017045943 0.0036709984 0.016981717
0.019048171 0.0036709979 0.017077584
0.020931862 0.0036709982 0.016995151
0.02299588 0.0036709972 0.016990399
0.025033891 0.0036709986 0.016973635
0.026973583 0.0036709986 0.017051052
0.029016022 0.0036709975 0.01698033
0.031031758 0.0036709995 0.016997518
0.032949138 0.0036709975 0.016968776
0.035074204 0.0036884493 0.016958138
0.037294257 0.0031139762 0.016871901
0.05341392 0.0034917563 0.017095
0.054492798 0.0025579408 0.016777342
-0.052458622 0.0044786432 0.01688065
-0.051115904 0.0054475265 0.016962828
-0.048987027 0.0056710034 0.017083067
-0.046985827 0.0056710006 0.016913123
-0.045008875 0.0056709992 0.0170574
-0.042930063 0.005671001 0.017078787
-0.040975481 0.005671002 0.017045479
-0.039039388 0.005671002 0.016997974
-0.037092786 0.0050713206 0.016897153
-0.035165295 0.0054660272 0.0171546
-0.032967761 0.0056710015 0.016989537
-0.030974392 0.0056710024 0.016932355
-0.028902197 0.0056710038 0.016960818
-0.026975268 0.0056710034 0.016972322
-0.02495648 0.0056709992 0.016952066
-0.022933813 0.0056709978 0.017009344
-0.02099696 0.0056710015 0.016997274
-0.018957406 0.005671002 0.016928433
-0.016903307 0.0056710001 0.017213631
-0.015021307 0.0056710015 0.017004753
-0.01321168 0.0050707469 0.016987046
-0.01101845 0.0056709987 0.017024726
-0.0089906547 0.0056710048 0.017009964
-0.0069454988 0.0056710029 0.01700848
-0.0050991895 0.0056710006 0.016892551
-0.0030473804 0.0056710034 0.017011801
-0.00088675896 0.0056709973 0.017058728
0.00094076537 0.0056710029 0.017018311
0.0030137789 0.0056709964 0.017000671
0.005086795 0.0056710015 0.017028114
0.0070529752 0.0056710029 0.017080197
0.0089869099 0.0056710038 0.017030945
0.010970141 0.0056710024 0.016990351
0.013027188 0.0050914539 0.016949801
0.014573 0.0053285048 0.016994037
0.017034415 0.0056709987 0.017059781
0.019053051 0.0056710001 0.016957141
0.020928413 0.005671001 0.016986236
0.023014503 0.005671002 0.016972158
0.025010083 0.0056709992 0.01701849
0.0270535 0.005671002 0.016927719
0.028994991 0.0056709978 0.017057257
0.030911772 0.0056709996 0.017031888
0.033021081 0.0056710034 0.017014027
0.035173543 0.0054626637 0.017140975
0.037024714 0.0049934415 0.016871162
0.038929705 0.0056710029 0.016951833
0.041064415 0.0056710024 0.01704683
0.043115251 0.005671002 0.017003911
0.045012958 0.0056709964 0.016994447
0.047089864 0.0056709996 0.017065495
0.048938397 0.0056710029 0.017003819
0.051108535 0.0054513286 0.017104937
0.052498959 0.0044551371 0.016900985
-0.056052573 -0.0062379176 0.018219715
-0.054980997 -0.0063129785 0.018894834
-0.052978273 -0.006329 0.019128909
-0.051142521 -0.006329 0.018874262
-0.049104258 -0.006329 0.018960843
-0.046911471 -0.006329 0.018898793
-0.045042854 -0.006329 0.018971561
-0.043117959 -0.006329 0.019103421
-0.040943995 -0.006329 0.018958759
-0.039036326 -0.006329 0.019004595
-0.037025772 -0.0062866062 0.019147579
0.037112467 -0.0063032475 0.019112771
0.039030138 -0.006329 0.018952614
0.040989839 -0.006329 0.019063551
0.042990636 -0.006329 0.018903576
0.045078363 -0.006329 0.019039614
0.047022551 -0.006329 0.019010499
0.048987549 -0.006329 0.019021345
0.050934467 -0.006329 0.019069098
0.052978598 -0.006329 0.019020682
0.054925416 -0.0063097207 0.018942567
0.056019887 -0.0061486778 0.018276341
-0.056055188 -0.0049391403 0.018240998
-0.055732388 -0.005002521 0.019206071
-0.036497068 -0.0049704402 0.019066872
-0.035989512 -0.0052512777 0.019999165
0.035994183 -0.0043343785 0.01999638
0.036557332 -0.0050122309 0.018950667
0.055725984 -0.005029622 0.019144125
0.056045037 -0.0051415828 0.018202078
-0.056061175 -0.0029413397 0.018220579
-0.055723049 -0.0029184981 0.019232009
-0.036566582 -0.0029952652 0.018928222
-0.0359932 -0.0027263034 0.019993011
0.035996169 -0.0023812244 0.019993063
0.036565024 -0.0030239683 0.018940477
0.055706672 -0.0030161063 0.019201169
0.05605467 -0.003039194 0.018173648
-0.056060463 -0.00093869801 0.018223044
-0.055713177 -0.0010681881 0.019258391
-0.036556866 -0.0010824699 0.018951355
0.03655256 -0.0010710383 0.01896601
0.05572864 -0.00095338095 0.019136308
0.056054685 -0.000947416 0.018173581
-0.056049246 0.00041492289 0.018247729
-0.055220537 0.0011179234 0.01910173
-0.036547229 0.0010461985 0.018968182
-0.035991967 0.00067635154 0.019995067
0.035997916 5.977042e-05 0.019990148
0.036529828 0.00099941704 0.019008998
0.055279002 0.0010754614 0.018955832
0.056042306 0.00049341691 0.018158283
-0.054301403 0.0022167147 0.018574294
-0.053148814 0.0031385333 0.019093307
-0.036585912 0.0030632194 0.018894348
-0.034787226 0.0036694405 0.018930169
-0.032963406 0.0036709984 0.019048231
-0.030964188 0.0036709986 0.018975981
-0.028926808 0.0036709979 0.019013394
-0.0269516 0.0036709986 0.018973224
-0.024957299 0.003671 0.019060696
-0.022966273 0.0036709982 0.018992476
-0.021046937 0.0036709965 0.018969662
-0.01904865 0.0036709979 0.019040292
-0.016926251 0.0036709972 0.019052247
-0.015006226 0.0036709982 0.018991437
-0.012975562 0.0037415898 0.01899332
-0.010966618 0.0036709986 0.019035818
-0.0089783352 0.0036709988 0.019042425
-0.0069860388 0.0036709979 0.019004898
-0.0049875421 0.0036709979 0.019064797
-0.0029074156 0.0036709982 0.018964021
-0.00094492891 0.0036709975 0.018933248
0.00097130658 0.0036709991 0.018997543
0.002965519 0.003670997 0.018999167
0.0049572862 0.0036709977 0.018975165
0.0069859107 0.0036709972 0.018973405
0.0089892456 0.0036709982 0.018959368
0.010962476 0.0036709982 0.019092083
0.012700962 0.0037074357 0.019054521
0.014874471 0.0037079756 0.018975122
0.017003337 0.0036709979 0.01891423
0.019057995 0.0036709991 0.018950617
0.020987581 0.0036709982 0.018965097
0.022964617 0.0036709982 0.019058697
0.025014794 0.0036709988 0.018994138
0.027023174 0.003670997 0.019051103
0.029018162 0.0036709982 0.01908051
0.031026192 0.0036709977 0.018945165
0.033108111 0.0036709982 0.019001298
0.034765013 0.0037175589 0.019004017
0.036495697 0.0028931552 0.019070515
0.053083345 0.0032194532 0.019046035
0.054251779 0.0022457039 0.018646689
-0.052163441 0.0042223632 0.018662879
-0.051025603 0.0051015997 0.019023044
-0.04901896 0.0056709964 0.018928135
-0.047053989 0.005671001 0.018906474
-0.045013536 0.0056709982 0.018998897
-0.042997796 0.0056709996 0.018967984
-0.041068662 0.0056709987 0.018938104
-0.038963821 0.0056710015 0.019004533
-0.036826525 0.00514 0.019053418
-0.034934033 0.0050945776 0.018993368
-0.033064157 0.0056709996 0.018967664
-0.030979395 0.0056710029 0.018887911
-0.028912557 0.0056709987 0.019070392
-0.026898261 0.0056710015 0.019057747
-0.024993462 0.0056709964 0.018933896
-0.023037536 0.0056710015 0.019058906
-0.020976735 0.0056709964 0.019006977
-0.01892961 0.0056709996 0.019019436
-0.017006516 0.0056710057 0.018911717
-0.014898564 0.0056710015 0.018942984
-0.013217112 0.0050773113 0.019022953
-0.011083786 0.0056709987 0.018970508
-0.0090257451 0.0056709964 0.019003745
-0.0070490828 0.0056710029 0.01903693
-0.0049700658 0.0056710029 0.018991875
-0.0030052757 0.0056709982 0.019042267
-0.0010395821 0.005671002 0.018927868
0.00098827225 0.0056710034 0.018945128
0.0029237501 0.0056709996 0.018946474
0.0050273612 0.005671002 0.019033642
0.007027444 0.0056710015 0.019052256
0.0090344846 0.0056709996 0.019033879
0.010991115 0.0056709964 0.01904772
0.013034762 0.0051154671 0.01899755
0.014535574 0.0053048218 0.01897951
0.016990297 0.0056710006 0.018941211
0.018997012 0.0056709987 0.019117532
0.020972952 0.0056709987 0.01901781
0.022915816 0.0056709978 0.018976245
0.025022697 0.0056710029 0.019041983
0.02700142 0.005671002 0.019082557
0.02903712 0.0056710006 0.018922932
0.030993443 0.0056710029 0.018957926
0.033022661 0.005671002 0.01887811
0.034939665 0.0051023811 0.018993588
0.036865294 0.0052425493 0.019093517
0.039015744 0.0056710062 0.018933153
0.040893324 0.0056710006 0.019083692
0.043050833 0.0056709978 0.019110387
0.045018312 0.0056710034 0.019091953
0.046943083 0.0056710015 0.019022714
0.048922773 0.0056709978 0.018959282
0.051108882 0.0050309333 0.01904971
0.052256051 0.0041732988 0.018538853
-0.054678399 -0.0062800176 0.020857409
-0.05297694 -0.006329 0.021025809
-0.050923146 -0.006329 0.021009594
-0.048998304 -0.006329 0.020993082
-0.047030147 -0.006329 0.021052698
-0.04495449 -0.006329 0.021036761
-0.042975545 -0.006329 0.021005735
-0.041040242 -0.006329 0.021023316
-0.038965575 -0.006329 0.0210652
-0.037093408 -0.006329 0.020994935
-0.035546407 -0.0062882677 0.021136608
0.035518534 -0.0062612463 0.021269044
0.037038557 -0.006329 0.02098552
0.039097864 -0.006329 0.021022331
0.041002594 -0.006329 0.021020185
0.04306224 -0.006329 0.02104892
0.045039054 -0.006329 0.02109747
0.047047328 -0.006329 0.020991614
0.049004078 -0.006329 0.021022743
0.050975423 -0.006329 0.021061968
0.052978773 -0.006329 0.020988449
0.054671917 -0.0062850616 0.02093713
-0.055036493 -0.0048578023 0.021027155
-0.035444748 -0.0049888967 0.020908082
0.035367202 -0.0049647912 0.021042449
0.055066653 -0.0050407695 0.021030053
-0.05504363 -0.0031222131 0.021008555
-0.035468105 -0.0030985812 0.020869097
0.035432599 -0.0030052229 0.020933349
0.055056334 -0.0029442939 0.021065423
-0.055067349 -0.0010701863 0.020946965
-0.035316572 -0.0009950567 0.021121914
0.03540384 -0.0011002455 0.020981349
0.055059381 -0.00090999203 0.021053877
-0.054743197 0.00085885637 0.020890143
-0.053736553 0.0017576492 0.021411819
-0.03537247 0.0010396375 0.021028658
0.035345193 0.00098355405 0.021079171
0.053689405 0.0017769798 0.021437101
0.054816674 0.00085997081 0.020842506
-0.052781925 0.0028091327 0.020903632
-0.051659126 0.0037123438 0.021227621
-0.035297353 0.0031534915 0.020923525
-0.033039011 0.0036831934 0.020986672
-0.031058392 0.0036709975 0.021063739
-0.028926281 0.0036709975 0.021005986
-0.026987223 0.0036709979 0.02096908
-0.025054032 0.0036709998 0.021050505
-0.022978814 0.0036709982 0.020979038
-0.02111418 0.0036709984 0.020919675
-0.019062029 0.0036709993 0.020993797
-0.017040569 0.0036709979 0.020990012
-0.015125816 0.0036709988 0.021069456
-0.012940681 0.0037382571 0.020972319
-0.01094541 0.0036709988 0.021034831
-0.0089810546 0.0036709986 0.021029295
-0.0070991237 0.0036709979 0.021001801
-0.0048929821 0.0036709986 0.020992791
-0.0029952505 0.0036709975 0.02094933
-0.0010121192 0.0036709975 0.021057671
0.0010471767 0.0036709982 0.020928694
0.0029676382 0.003670997 0.021065297
0.0049376492 0.0036709972 0.02099449
0.0069451253 0.0036709977 0.020919321
0.0090484815 0.0036709968 0.021034773
0.011037122 0.0036709977 0.020877166
0.012723811 0.0036931336 0.021023687
0.014812965 0.0036960128 0.020986922
0.016973702 0.0036709979 0.021046421
0.018851766 0.0036709977 0.020987291
0.02092094 0.0036709984 0.020980569
0.023054881 0.0036709991 0.020928698
0.024911588 0.0036709991 0.021072637
0.027010275 0.0036709979 0.021019343
0.029036164 0.0036709977 0.021073258
0.030960569 0.0036709975 0.021012018
0.03306929 0.0036868078 0.020978941
0.035295572 0.0030100804 0.020914931
0.051632598 0.003686971 0.021359546
0.052834693 0.0027632762 0.020887423
-0.050749749 0.0047063944 0.020877054
-0.049090583 0.0056134746 0.021094941
-0.046899427 0.0056709982 0.021001631
-0.044972058 0.0056709996 0.020944111
-0.04298941 0.0056710052 0.021044698
-0.041000109 0.0056710048 0.020982718
-0.038890664 0.0056709978 0.020822078
-0.036976762 0.0056709964 0.02091754
-0.035061143 0.0050640213 0.020875856
-0.033207923 0.0053319465 0.021111103
-0.030996978 0.0056710024 0.02106181
-0.029017692 0.0056710024 0.021016229
-0.026950032 0.0056710029 0.020934293
-0.025070881 0.0056710015 0.020878503
-0.023022 0.0056710015 0.020919885
-0.020979963 0.0056710038 0.021030674
-0.018981146 0.0056709964 0.020935398
-0.017016483 0.005671002 0.020908147
-0.015049159 0.0056710001 0.020859674
-0.013304372 0.0050081541 0.021014448
-0.011034242 0.0056709992 0.020984463
-0.0090072025 0.0056710001 0.020986367
-0.0069723898 0.0056710001 0.020979254
-0.005023127 0.0056709987 0.020934595
-0.0029961939 0.0056710001 0.021069583
-0.00092471088 0.0056710029 0.020989247
0.000915949 0.0056710052 0.021079538
0.0030331961 0.0056710006 0.021076705
0.0049488698 0.0056709987 0.020944458
0.007034041 0.0056710001 0.021070302
0.0089360802 0.005671001 0.021027418
0.010952689 0.0056709996 0.021017065
0.012962124 0.0052128304 0.021046886
0.01460008 0.0053264908 0.020965749
0.017001797 0.0056710029 0.021035073
0.019011218 0.0056710034 0.021083144
0.020950943 0.0056710015 0.020964451
0.023077119 0.0056710029 0.02099178
0.025003044 0.0056710015 0.021011157
0.026944516 0.0056710024 0.020943204
0.02913302 0.0056710015 0.020956138
0.030958297 0.005671002 0.020971911
0.033195015 0.0053406088 0.021190325
0.035099253 0.0050062495 0.02083868
0.037011705 0.0056709964 0.02110891
0.038973361 0.0056709987 0.020960381
0.040989693 0.005671001 0.021015083
0.043013867 0.0056710015 0.02096176
0.045016307 0.0056709982 0.020999195
0.046961587 0.005671002 0.020980051
0.048921991 0.0056307465 0.021046055
0.050759006 0.0046855747 0.020947805
-0.054289911 -0.0062538777 0.022714205
-0.053029872 -0.0063236649 0.022997918
-0.051070772 -0.006329 0.023002209
-0.048969414 -0.006329 0.022905346
-0.046919737 -0.006329 0.023005433
-0.044947971 -0.006329 0.022919329
-0.043016907 -0.006329 0.023066903
-0.040953547 -0.006329 0.02300193
-0.038936257 -0.006329 0.022899529
-0.036906894 -0.006329 0.023044679
-0.035019573 -0.0063090581 0.023039522
-0.033728521 -0.0062513528 0.023767652
0.033794075 -0.0062403758 0.023691945
0.034978446 -0.0063052187 0.023096848
0.036976114 -0.006329 0.023007378
0.038998507 -0.006329 0.023136338
0.040971227 -0.006329 0.022974165
0.042955551 -0.006329 0.023024993
0.045012332 -0.006329 0.022951007
0.046984881 -0.006329 0.023009149
0.048997302 -0.006329 0.022967922
0.050963975 -0.006329 0.023044715
0.052975859 -0.0063264742 0.02300084
0.054321401 -0.0062262346 0.022505416
-0.054315358 -0.0048534339 0.022891847
-0.053917579 -0.0049855895 0.023810882
-0.034398776 -0.005032924 0.022636104
-0.033690244 -0.0049161427 0.023641067
0.033675723 -0.0050752289 0.023664692
0.034365427 -0.0049281511 0.022691811
0.05391835 -0.0050752275 0.023747636
0.054313853 -0.0049291337 0.022832297
-0.05435776 -0.0029804199 0.022785125
-0.053901557 -0.0026900584 0.023844136
-0.0344151 -0.0029377399 0.022608757
-0.033729661 -0.002947004 0.023587923
0.033672102 -0.0028960027 0.023669563
0.034397323 -0.0030588175 0.022644283
0.053894635 -0.0031777758 0.023802528
0.054328516 -0.0030536407 0.0227984
-0.054349676 -0.00090203696 0.022805462
-0.053908098 -0.00087821041 0.02383055
-0.034428738 -0.00088612922 0.022588681
-0.033699658 -0.00097830023 0.023628376
0.033697605 -0.0010854657 0.023635183
0.034439132 -0.0010179674 0.022574708
0.053910363 -0.00088131917 0.023766117
0.054337639 -0.00096524291 0.022777267
-0.054285858 0.00064302614 0.022656385
-0.053317316 0.0014287108 0.023187816
-0.034439094 0.00097442744 0.022571247
-0.033734798 0.00095764885 0.023580998
0.033704296 0.0010689853 0.023626171
0.034407858 0.0011057947 0.02262564
0.053360149 0.0013690975 0.02319495
0.054307137 0.00048622381 0.022666173
-0.052374471 0.0023941719 0.02292829
-0.051276814 0.0033166548 0.023103686
-0.034410726 0.0030430569 0.022614846
-0.033119574 0.0034303674 0.023195339
-0.031032402 0.0036762538 0.023057701
-0.029047217 0.0036709968 0.022985367
-0.027016176 0.0036709988 0.023046345
-0.025140785 0.0036709988 0.023109538
-0.022938695 0.0036709986 0.023000423
-0.021078357 0.0036709988 0.022983348
-0.019040503 0.0036709979 0.022987926
-0.017013857 0.0036709977 0.023031028
-0.014961327 0.0036709982 0.023064183
-0.012969133 0.0037315891 0.023067964
-0.011024642 0.0036709975 0.023027968
-0.009096941 0.0036709975 0.022925055
-0.0069178385 0.0036709986 0.023066841
-0.005002866 0.0036709982 0.022973716
-0.0030463778 0.0036709984 0.0230016
-0.0010264078 0.0036709982 0.022930376
0.0010429499 0.0036709986 0.023096669
0.0029580258 0.0036709982 0.023016457
0.0049210968 0.0036709988 0.023080058
0.0070116087 0.0036709979 0.023074986
0.0090020364 0.0036709982 0.02299998
0.011049075 0.0036709982 0.022996422
