# .PCD v0.7 - Point Cloud Data file format
VERSION 0.7
FIELDS x y z
SIZE 4 4 4
TYPE F F F
COUNT 1 1 1
WIDTH 1289
HEIGHT 1
VIEWPOINT 0 0 0 1 0 0 0
POINTS 1289
DATA ascii
0.06492088 -0.014618609 -0.12711899
0.0669754 -0.014488174 -0.12714104
0.068783395 -0.014636 -0.12719591
0.070990846 -0.014608727 -0.12720847
0.073268421 -0.014629107 -0.12692152
0.075093634 -0.014596001 -0.12701754
0.076898232 -0.014606834 -0.12697102
0.078909039 -0.014621715 -0.12695472
0.080896951 -0.014502669 -0.12710257
0.083039388 -0.014568144 -0.12703155
0.085062422 -0.014577379 -0.12695426
0.086897582 -0.014636002 -0.12704319
0.089119315 -0.014602955 -0.12699527
0.091002449 -0.014835999 -0.12709248
0.092790946 -0.014685326 -0.1269481
0.094407856 -0.014767461 -0.12637281
0.097105443 -0.014487252 -0.12630612
0.098678999 -0.014589233 -0.12678713
0.1010474 -0.014835999 -0.1268142
0.10300666 -0.014835999 -0.12667613
0.10512118 -0.014835999 -0.12698007
0.10725514 -0.014835999 -0.12681617
0.10853258 -0.01494648 -0.12719265
0.11109193 -0.015074454 -0.12712477
-0.11042503 -0.013642344 -0.12711838
-0.10956816 -0.013139263 -0.12707384
-0.098653145 -0.012966118 -0.12709709
-0.097185053 -0.012775972 -0.12637885
-0.094664074 -0.013016978 -0.12644224
-0.09321627 -0.012763952 -0.12723123
-0.090018995 -0.013380318 -0.12695198
-0.046442021 -0.01288278 -0.12680094
-0.044817518 -0.013485999 -0.12698689
-0.042843834 -0.013485999 -0.12739857
-0.040830411 -0.013485999 -0.12733385
-0.039214335 -0.013485999 -0.12693317
-0.036915146 -0.013485999 -0.12715894
-0.034761224 -0.013485999 -0.12693585
-0.033206962 -0.013485999 -0.12714902
-0.030752409 -0.013485999 -0.12682301
-0.029185018 -0.013485999 -0.12724137
-0.0275642 -0.013095553 -0.12689227
-0.0080152582 -0.012882804 -0.12748814
-0.0070870379 -0.013257775 -0.12687573
-0.0049658897 -0.013485999 -0.1268304
-0.0028079597 -0.013485999 -0.1267591
-0.00094294176 -0.013485999 -0.12692329
0.0012462554 -0.013485999 -0.12684126
0.0030878263 -0.013485999 -0.12688716
0.004828997 -0.013485999 -0.12678131
0.0073919119 -0.013144926 -0.12689868
0.027616378 -0.012870105 -0.12674324
0.029207628 -0.013485999 -0.12715812
0.03076911 -0.013485999 -0.12709221
0.032808505 -0.013486 -0.12716973
0.035057914 -0.013485999 -0.12670381
0.037029922 -0.013485999 -0.12697285
0.038681641 -0.013485999 -0.12715898
0.040826425 -0.013485999 -0.12700261
0.042996459 -0.013485999 -0.12697272
0.045161057 -0.013485999 -0.12688157
0.046462912 -0.013008359 -0.12699015
0.089981005 -0.013004418 -0.12709695
0.093136221 -0.013093022 -0.12724447
0.094715983 -0.013069502 -0.12641405
0.096957423 -0.013246979 -0.12634441
0.098886229 -0.012739816 -0.12732174
0.10954381 -0.013186056 -0.12716347
0.11042392 -0.013664681 -0.127313
-0.109519 -0.010855678 -0.12699068
-0.098771401 -0.010903786 -0.12720878
-0.097067356 -0.010579193 -0.12635109
-0.094697475 -0.011105432 -0.12644097
-0.093124114 -0.010862519 -0.12732834
-0.090018995 -0.011177415 -0.1270968
-0.046519004 -0.01087059 -0.12706593
-0.027518995 -0.010970954 -0.1268224
-0.0080164988 -0.011199104 -0.12743729
-0.0077236742 -0.01016624 -0.12614866
0.0078868028 -0.011081995 -0.12701133
0.027480997 -0.010960834 -0.12680463
0.046480998 -0.011439651 -0.12731743
0.089980997 -0.010995585 -0.12675929
0.093209475 -0.011052447 -0.12722711
0.095203876 -0.01068078 -0.12630051
0.096924119 -0.010603799 -0.12634833
0.098757535 -0.01112125 -0.1271669
0.10948099 -0.011060359 -0.12691826
-0.109519 -0.0091372551 -0.12728797
-0.098581314 -0.0089586526 -0.12701212
-0.096903972 -0.0092507796 -0.1263252
-0.09476269 -0.0089070834 -0.12639652
-0.093276836 -0.0089386683 -0.12717597
-0.090018995 -0.0094078751 -0.12692142
-0.046519004 -0.0089865765 -0.12706283
-0.027518997 -0.0090458784 -0.12714766
-0.0080190003 -0.0083375899 -0.1275713
-0.0078938985 -0.0091333352 -0.12655169
0.0078876344 -0.008984792 -0.12689681
0.027481001 -0.0088236202 -0.12707551
0.046481002 -0.0088537596 -0.12709393
0.08998099 -0.0089177722 -0.12732401
0.093132652 -0.0088496041 -0.12725836
0.095289461 -0.0089016482 -0.126284
0.096773893 -0.0091119846 -0.12631232
0.098979563 -0.0088332864 -0.12738106
0.10948098 -0.0092776548 -0.1269436
-0.109519 -0.0071177715 -0.12686971
-0.098908819 -0.0069936141 -0.12729561
-0.097059168 -0.0071444204 -0.12633389
-0.095069192 -0.0069232387 -0.12632091
-0.093271531 -0.0068642739 -0.12721677
-0.090018995 -0.0068854974 -0.12701119
-0.046519 -0.0069836238 -0.12707794
-0.027518999 -0.0070550325 -0.12665416
-0.0080190003 -0.0072991922 -0.12751466
-0.0077625033 -0.0070196274 -0.12627435
0.0079337265 -0.0072518047 -0.12705131
0.027481001 -0.0069444878 -0.1271489
0.046480998 -0.0069181202 -0.12710762
0.08998099 -0.0070105987 -0.12692694
0.093112826 -0.0071971747 -0.12727338
0.094931856 -0.0070919334 -0.12636176
0.097444557 -0.0067226947 -0.12647277
0.098829903 -0.0070263529 -0.12727392
0.10948099 -0.0068987519 -0.12723942
-0.109519 -0.0050845118 -0.12707466
-0.098796077 -0.0052549122 -0.12720615
-0.097244136 -0.0050816163 -0.12640104
-0.095173061 -0.0050194603 -0.12630884
-0.093190372 -0.0051036826 -0.12724791
-0.090018995 -0.0050781518 -0.12666784
-0.046519008 -0.0052317278 -0.12684102
-0.027518999 -0.0048446087 -0.1274657
-0.0080163265 -0.0049207858 -0.12736753
-0.0078870161 -0.004721466 -0.12651768
0.0078644799 -0.0049169459 -0.12688431
0.027481001 -0.0049696122 -0.12670106
0.046481006 -0.0049699452 -0.12706636
0.089981005 -0.0051035048 -0.1270285
0.093030959 -0.0049891756 -0.12733607
0.095254779 -0.0047368859 -0.12626468
0.096485451 -0.0051798099 -0.12625073
0.098816402 -0.0052414355 -0.12723362
0.10948099 -0.0049059489 -0.127166
-0.109519 -0.0032340388 -0.12705101
-0.099098831 -0.0031316122 -0.12744984
-0.09718091 -0.0024733194 -0.12639937
-0.094723731 -0.0030521997 -0.12640177
-0.093190305 -0.0027900646 -0.12724273
-0.090018995 -0.0032307389 -0.12670211
-0.046519004 -0.0032808292 -0.12662788
-0.027519003 -0.0029364445 -0.1269366
-0.0080190003 -0.0028807782 -0.12783891
-0.0078819226 -0.0032660151 -0.12660804
0.0079371398 -0.0030473459 -0.12707886
0.027481001 -0.0029888256 -0.12704986
0.046481002 -0.0028797034 -0.12678942
0.089981005 -0.0031030991 -0.1270889
0.093140811 -0.0029183684 -0.12725669
0.095233887 -0.003089413 -0.12628688
0.097128302 -0.002862979 -0.12638263
0.098831177 -0.0026097009 -0.12724327
0.10948098 -0.0032063811 -0.12712631
-0.109519 -0.00089888298 -0.12680063
-0.09865734 -0.0010603124 -0.12709135
-0.096931234 -0.00094452273 -0.12631652
-0.095099583 -0.001102531 -0.12634023
-0.093171202 -0.00097641948 -0.12725638
-0.090018995 -0.0010264743 -0.12688206
-0.046519004 -0.0011190131 -0.12714122
-0.027519001 -0.00080659392 -0.12719192
-0.0080131572 -0.00060782593 -0.12740582
-0.0078550763 -0.0011217558 -0.12646095
0.0078776767 -0.00078055722 -0.12670757
0.027481001 -0.00088755193 -0.12694339
0.046480998 -0.00048837025 -0.12690876
0.089980982 -0.00098695571 -0.12724894
0.093204707 -0.0011217424 -0.12720375
0.095191695 -0.00075601094 -0.12629147
0.096899033 -0.001087094 -0.12632591
0.098777704 -0.00085527508 -0.12720394
0.10948098 -0.0010502773 -0.12686358
-0.109519 0.0009473504 -0.12719768
-0.098986797 0.0007929061 -0.12737106
-0.097229332 0.00086929358 -0.12640236
-0.095092937 0.0010127097 -0.12631947
-0.093264177 0.0010664653 -0.12718
-0.090019003 0.0013664744 -0.12720224
-0.046519004 0.0010305708 -0.126688
-0.027519001 0.0011370238 -0.12723967
-0.0080190003 0.0012671521 -0.12747714
-0.0078889914 0.0013647685 -0.12652187
0.0078598382 0.00098231179 -0.12679189
0.027481001 0.0010548249 -0.12664118
0.046481002 0.0010448265 -0.12716585
0.089980997 0.00084519369 -0.1269547
0.093198821 0.00089166872 -0.12722677
0.095113158 0.0011519813 -0.12632452
0.096611984 0.00098764955 -0.12626822
0.09867768 0.0012195981 -0.12712787
0.10948098 0.00087309285 -0.12711099
-0.109519 0.0030179354 -0.12709238
-0.098749295 0.0028634057 -0.12714145
-0.096966326 0.0029830085 -0.12635279
-0.094763391 0.0029801063 -0.12641694
-0.093101867 0.0029908193 -0.12731913
-0.090018995 0.0029801133 -0.12689479
-0.046519 0.0025883541 -0.12687428
-0.027518997 0.0027321118 -0.12711646
-0.0080190003 0.0032444156 -0.12773274
-0.0079399757 0.002998407 -0.12671857
0.0078919847 0.0027844659 -0.12699011
0.027481001 0.002942268 -0.12682168
0.046481006 0.0028922795 -0.12694964
0.089981012 0.0027195683 -0.12723507
0.093202576 0.0029979632 -0.1272351
0.095045023 0.0030444707 -0.12631525
0.096977018 0.002921877 -0.12635995
0.098766908 0.0027968506 -0.12720335
0.10948098 0.0029593848 -0.12726298
-0.109519 0.0049411044 -0.1273085
-0.09886279 0.005326381 -0.12725471
-0.097214818 0.005088978 -0.12637585
-0.094990477 0.0049548568 -0.12634823
-0.093150176 0.005020055 -0.12727095
-0.090018995 0.0050166077 -0.12724943
-0.046519004 0.0049681156 -0.12702188
-0.027519003 0.0050550583 -0.12704228
-0.0080190003 0.0048071058 -0.12767319
-0.0078777419 0.0050860303 -0.12649381
0.0079178652 0.0049479976 -0.1269272
0.027481003 0.0048676603 -0.1267599
0.046480998 0.0051262868 -0.12675238
0.089981005 0.0050464906 -0.12670754
0.093057916 0.00471179 -0.12732667
0.094905153 0.0049025179 -0.1263527
0.097250685 0.0050001619 -0.12643807
0.098925427 0.0050532455 -0.12734525
0.10948098 0.0049772556 -0.12686314
-0.109519 0.0066765356 -0.1270925
-0.098908685 0.007082033 -0.12730579
-0.097626023 0.0072403643 -0.12649655
-0.094810598 0.0074477182 -0.12640531
-0.093079872 0.0070063672 -0.12735255
-0.090018995 0.0072078547 -0.1266802
-0.046519004 0.0069948966 -0.12716365
-0.027518999 0.0068738698 -0.12696491
-0.0080159288 0.0071201911 -0.12754539
-0.0078579895 0.0072742105 -0.12646399
0.0079437932 0.007047717 -0.12715873
0.027481003 0.0067958934 -0.12694475
0.046480998 0.0066860369 -0.12693322
0.08998099 0.0072626341 -0.12700941
0.0930259 0.0069420808 -0.12732089
0.094916277 0.0068001407 -0.12634875
0.096807204 0.006762397 -0.12630112
0.098838151 0.0068626176 -0.12727435
0.10948098 0.0069166599 -0.12707753
-0.109519 0.0091306726 -0.12708449
-0.099088356 0.0090549048 -0.12745547
-0.097095869 0.009045165 -0.12633906
-0.094997101 0.0091719106 -0.12633885
-0.093168415 0.008752198 -0.1272492
-0.090018995 0.0091047836 -0.12674962
-0.046519004 0.0089698164 -0.12725753
-0.027518997 0.0090828221 -0.12671356
-0.0080176005 0.009123045 -0.12768357
-0.0079202196 0.0084724706 -0.12660298
0.0079286285 0.0089561865 -0.12711966
0.027480999 0.0091925701 -0.12706801
0.046480998 0.0089287758 -0.12688568
0.08998099 0.0088495295 -0.1268013
0.093229756 0.0090965163 -0.12720816
0.094867669 0.0090501411 -0.1263546
0.097350605 0.008736087 -0.12642746
0.098762296 0.0089684632 -0.12721635
0.10948099 0.0088196918 -0.12667307
-0.10951176 0.011123708 -0.12694974
-0.098769233 0.010981246 -0.12720583
-0.097356342 0.01082826 -0.12643158
-0.094857827 0.01112567 -0.12638576
-0.093065612 0.011044859 -0.12736307
-0.090018995 0.010714103 -0.12705997
-0.046456087 0.010830254 -0.12722534
-0.045265317 0.011164 -0.12722714
-0.042710193 0.011164001 -0.12711126
-0.040854141 0.011164001 -0.12677012
-0.038923763 0.011163999 -0.12700947
-0.036974248 0.011163998 -0.12706234
-0.035285819 0.011164001 -0.12682873
-0.033393852 0.011164001 -0.12671676
-0.031329408 0.011164001 -0.12675403
-0.028722418 0.011163999 -0.12679918
-0.027578523 0.010938977 -0.12693475
-0.0080152955 0.010620442 -0.12736952
-0.0079209097 0.010846608 -0.12660487
0.0078786425 0.011016586 -0.12687933
0.027514171 0.010610143 -0.12720917
0.029033655 0.011163998 -0.12682341
0.031415537 0.011164 -0.12747288
0.032976802 0.011164001 -0.12690078
0.034999531 0.011164001 -0.12695564
0.037186787 0.011164 -0.12720245
0.038936209 0.011164001 -0.12688819
0.040626787 0.011164001 -0.12707472
0.042780731 0.011164001 -0.12703206
0.045275681 0.011164 -0.12729809
0.046340708 0.01089641 -0.12682563
0.089981012 0.01115268 -0.12705006
0.092871107 0.011453258 -0.12749858
0.094833218 0.010837143 -0.12638105
0.09688206 0.010995172 -0.12632412
0.098894216 0.010956662 -0.12731232
0.10947692 0.01072679 -0.12724234
-0.10917079 0.013282785 -0.12700315
-0.09883216 0.013223736 -0.12723534
-0.09729667 0.013211383 -0.12641616
-0.09495873 0.012858198 -0.12635721
-0.092981085 0.012812006 -0.12742072
-0.090018995 0.013117551 -0.12675682
-0.0080127614 0.012829147 -0.12728792
-0.0078507513 0.013115942 -0.12638804
0.0078800339 0.012678353 -0.12677278
0.089980997 0.013126248 -0.12669334
0.093438193 0.012911271 -0.12703961
0.095130093 0.012857175 -0.12629282
0.097202219 0.013026669 -0.12639186
0.098965265 0.013501073 -0.12739865
0.10930465 0.01273349 -0.12689231
-0.1084375 0.014535503 -0.12665018
-0.10738362 0.015430894 -0.12680557
-0.098846622 0.015026603 -0.12723182
-0.097274803 0.014753184 -0.12641735
-0.09513136 0.014870743 -0.12631124
-0.093042411 0.01501955 -0.12736632
-0.090018995 0.014632902 -0.12711272
-0.089212507 0.015663998 -0.12692
-0.087060712 0.015663998 -0.12667969
-0.084899887 0.015664 -0.12709783
-0.083025932 0.015664 -0.12700801
-0.081346601 0.015663998 -0.12673983
-0.079057679 0.015663998 -0.12670954
-0.077033199 0.015663998 -0.12728401
-0.07470616 0.015663998 -0.12683889
-0.072907448 0.015663998 -0.12680973
-0.071036391 0.015663998 -0.12706818
-0.068886407 0.015663998 -0.12720951
-0.067147374 0.015663998 -0.12706666
-0.065125257 0.015663998 -0.12701105
-0.06318222 0.015663998 -0.12715334
-0.061061095 0.015663998 -0.12703249
-0.059176002 0.015663998 -0.12684286
-0.056907535 0.015664 -0.12712231
-0.054996289 0.015663998 -0.12683174
-0.052946996 0.015663998 -0.12680814
-0.051267982 0.015663998 -0.12709203
-0.048787057 0.015663998 -0.12733382
-0.046939392 0.015663998 -0.12694003
-0.044836253 0.015663998 -0.12704529
-0.043306079 0.015663998 -0.12689798
-0.040972188 0.015663998 -0.12701218
-0.039144609 0.015663998 -0.12651871
-0.036851346 0.015663998 -0.12692313
-0.034891985 0.015663998 -0.12692255
-0.032996207 0.015663998 -0.12743884
-0.031339921 0.015663998 -0.12660499
-0.02890774 0.015663998 -0.12706023
-0.026992412 0.015663998 -0.12717961
-0.025062257 0.015663998 -0.12684518
-0.023193432 0.015663998 -0.12703972
-0.021125523 0.015663998 -0.12701958
-0.018933417 0.015663998 -0.12678909
-0.016962918 0.015663998 -0.12682198
-0.015050166 0.015663998 -0.12672283
-0.0124263 0.015663998 -0.12737915
-0.010967728 0.015664 -0.12697902
-0.0084963627 0.015276751 -0.12699495
-0.0073464476 0.015375358 -0.12688075
-0.0052572791 0.015663998 -0.12705787
-0.0030292452 0.015663998 -0.12666383
-0.00086725439 0.015663998 -0.12683566
0.0010893027 0.015663998 -0.12698717
0.0031541018 0.015663998 -0.12726313
0.0047555394 0.015663998 -0.12686713
0.0076452913 0.015325624 -0.12685107
0.0091644553 0.015663998 -0.12728935
0.011115418 0.015663998 -0.12694991
0.013069645 0.015663998 -0.12701224
0.01510771 0.015663998 -0.12658133
0.017524051 0.015663998 -0.12679738
0.018833468 0.015663998 -0.1271722
0.021633774 0.015663998 -0.12707961
0.022650557 0.015663998 -0.12699813
0.024819341 0.015663998 -0.1265015
0.027069658 0.015663998 -0.12716535
0.029220788 0.015663998 -0.12678255
0.030868014 0.015663998 -0.12701003
0.033031888 0.015663998 -0.12686439
0.034903303 0.015663998 -0.12686965
0.036904853 0.015663998 -0.12762427
0.039050303 0.015663998 -0.12675902
0.04101602 0.015663998 -0.12698434
0.043058537 0.015663998 -0.12661389
0.045243066 0.015663998 -0.12684284
0.04696342 0.015663998 -0.12679869
0.049058404 0.015663998 -0.1270311
0.050921828 0.015663998 -0.12724096
0.052987654 0.015663998 -0.12690563
0.055003233 0.015663998 -0.12710199
0.057325892 0.015663998 -0.12706873
0.059004623 0.015663998 -0.1269833
0.060941372 0.015663998 -0.12732111
0.063118063 0.015663998 -0.12712151
0.065235615 0.015663998 -0.12733322
0.066920415 0.015663998 -0.12717579
0.068597056 0.015663998 -0.12712194
0.070933864 0.015663998 -0.12700704
0.072744839 0.015663998 -0.12688296
0.075176097 0.015663998 -0.12745768
0.07665471 0.015663998 -0.12715495
0.079375401 0.015663998 -0.12712505
0.081009284 0.015663998 -0.12700468
0.083072029 0.015664 -0.12702978
0.085108578 0.015663998 -0.12726469
0.087168083 0.015663998 -0.12709615
0.089293145 0.015357207 -0.12702401
0.093266249 0.014769412 -0.12714916
0.09533456 0.015056739 -0.12628035
0.096896939 0.015031143 -0.12632807
0.098796554 0.014934517 -0.12723555
0.10723297 0.015495506 -0.12687162
0.10839377 0.014535144 -0.12736283
-0.10501083 0.016137365 -0.12684624
-0.10325815 0.016164001 -0.12708248
-0.10101805 0.016163999 -0.12697411
-0.099217467 0.016163999 -0.12678874
-0.097690463 0.016163999 -0.12637891
-0.092581734 0.016163999 -0.1266517
-0.091222443 0.016163997 -0.12701777
-0.088966489 0.016164001 -0.12680799
-0.08729402 0.016163999 -0.12683764
-0.085079059 0.016163999 -0.12692067
-0.082900718 0.016164001 -0.12687515
-0.081193432 0.016164001 -0.12702802
-0.078873694 0.016164001 -0.1271745
-0.077111639 0.016164001 -0.12696515
-0.074920125 0.016163999 -0.12676032
-0.072852865 0.016164001 -0.12699209
-0.070730552 0.016164001 -0.12724218
-0.068994388 0.016164001 -0.12719962
-0.066769578 0.016164001 -0.12709244
-0.064868584 0.016164001 -0.12710464
-0.063179158 0.016163999 -0.12662083
-0.06122499 0.016163999 -0.1271631
-0.059051935 0.016164001 -0.12714058
-0.057100177 0.016164001 -0.12702307
-0.055136662 0.016164001 -0.12697469
-0.052832525 0.016164001 -0.12687084
-0.051031131 0.016164001 -0.12690577
-0.048975136 0.016164001 -0.12688777
-0.047052305 0.016164001 -0.12700132
-0.04486667 0.016163999 -0.12713438
-0.042807173 0.016164001 -0.1268955
-0.041128971 0.016164001 -0.12734233
-0.039161298 0.016164001 -0.12678899
-0.036870312 0.016164001 -0.12690711
-0.034849603 0.016164001 -0.12727796
-0.032677479 0.016164001 -0.12719487
-0.030711649 0.016164001 -0.12678677
-0.02897629 0.016164001 -0.12693508
-0.027114304 0.016164001 -0.12693314
-0.025050452 0.016164001 -0.12728807
-0.023066739 0.016164001 -0.12696646
-0.021164458 0.016163999 -0.12694222
-0.018712716 0.016163999 -0.12698613
-0.016892614 0.016164001 -0.12695622
-0.014522719 0.016163999 -0.12688041
-0.013440594 0.016164001 -0.1268651
-0.010927022 0.016163999 -0.12665619
-0.0090351291 0.016164001 -0.12671784
0.00795817 0.016163999 -0.1272049
0.0088865841 0.016164001 -0.12710579
0.011018567 0.016163999 -0.12700994
0.013380347 0.016163999 -0.12732142
0.015164425 0.016163999 -0.12706968
0.01661812 0.016163999 -0.1270514
0.018774513 0.016164001 -0.12701903
0.020992719 0.016164001 -0.12708241
0.022964781 0.016164001 -0.12690583
0.025192704 0.016163999 -0.12640165
0.026772151 0.016164001 -0.12684181
0.029382167 0.016163999 -0.12679024
0.03094293 0.016164001 -0.12717886
0.033106651 0.016164001 -0.12687087
0.035086188 0.016164001 -0.12695017
0.037199341 0.016164001 -0.12694739
0.039118171 0.016163999 -0.1271442
0.040730368 0.016164001 -0.12693606
0.042999566 0.016164001 -0.12682846
0.045009915 0.016164001 -0.12712365
0.04688026 0.016163999 -0.12671509
0.049051784 0.016163999 -0.12708531
0.05100904 0.016164001 -0.12666403
0.052965719 0.016164003 -0.12702562
0.054900587 0.016164001 -0.12696199
0.057165653 0.016163999 -0.12698318
0.059182368 0.016164001 -0.12704706
0.06138815 0.016164001 -0.12688392
0.06330888 0.016164001 -0.12705342
0.065262638 0.016163999 -0.12742171
0.06698966 0.016164001 -0.12702237
0.068743683 0.016164001 -0.1268149
0.07111688 0.016163999 -0.12706928
0.073083259 0.016164001 -0.12698486
0.074872881 0.016163999 -0.12668158
0.076917961 0.016164001 -0.12712157
0.079153642 0.016164001 -0.12693378
0.08094532 0.016163999 -0.1269839
0.082981877 0.016164001 -0.12685026
0.085058726 0.016164001 -0.12713282
0.086926535 0.016164001 -0.1271601
0.089055158 0.016163999 -0.1267141
0.091377959 0.016163999 -0.12694663
0.092965879 0.016163999 -0.1268367
0.095136993 0.016153626 -0.12610731
0.097458303 0.016163999 -0.12633194
0.099400952 0.016151834 -0.12722014
0.10091933 0.016164001 -0.12713738
0.10292108 0.016164001 -0.12716311
0.10481961 0.016139098 -0.12690321
-0.1108864 -0.01713258 -0.12509614
-0.10906184 -0.016947083 -0.1249911
0.10921223 -0.017097332 -0.12490126
0.1110128 -0.016970698 -0.1251929
-0.11118503 -0.015255369 -0.12504847
-0.10866787 -0.015110938 -0.12552376
-0.10701716 -0.014836 -0.1249494
-0.10506855 -0.014835999 -0.12494227
-0.1027268 -0.014835999 -0.12483951
-0.10100735 -0.014835999 -0.12511992
-0.098895609 -0.014835999 -0.12501615
-0.096976995 -0.014836 -0.12474571
-0.094791956 -0.014835999 -0.12514114
-0.09300191 -0.014835999 -0.12513834
-0.090823837 -0.014721276 -0.12507465
-0.088922933 -0.014572841 -0.12486755
-0.086986497 -0.014651789 -0.12480284
-0.085169017 -0.014541885 -0.12528391
-0.082925893 -0.014536001 -0.12512934
-0.081096783 -0.014608727 -0.12502171
-0.078997992 -0.014531655 -0.12493844
-0.077183306 -0.014483061 -0.1250632
-0.075103536 -0.014632876 -0.12507616
-0.073111594 -0.014502667 -0.12492511
-0.07102295 -0.014618612 -0.12505554
-0.068994865 -0.014558224 -0.12500498
-0.066956952 -0.014455047 -0.12496929
-0.06487792 -0.014478858 -0.12491079
-0.062840372 -0.014497288 -0.12504368
-0.061117534 -0.014606833 -0.12490097
-0.058987107 -0.014635999 -0.12478861
-0.057030451 -0.014488173 -0.12500706
-0.054863546 -0.014493895 -0.12491897
-0.052983616 -0.014586002 -0.12536606
-0.051040292 -0.014536001 -0.12500773
-0.048983343 -0.014558222 -0.124873
-0.04693187 -0.01461725 -0.1249759
-0.045104332 -0.014711 -0.12490969
-0.043097574 -0.014510999 -0.12495899
-0.041043442 -0.014613777 -0.12504342
-0.03912634 -0.014662087 -0.12486903
-0.037201252 -0.014662926 -0.12515125
-0.034866899 -0.014568144 -0.12495246
-0.033056747 -0.014586001 -0.12506527
-0.030940296 -0.014586001 -0.12501304
-0.028866271 -0.014558221 -0.12492749
-0.026939988 -0.014586002 -0.12483757
-0.024882657 -0.014599158 -0.12490331
-0.023032818 -0.014570375 -0.12481771
-0.021042829 -0.014640351 -0.1250433
-0.018845499 -0.014600706 -0.12481639
-0.01702763 -0.014636001 -0.12494458
-0.014948691 -0.014558224 -0.12513788
-0.013208412 -0.014576741 -0.1250764
-0.010858847 -0.014530445 -0.12505375
-0.0089423796 -0.014636001 -0.12483168
-0.0069679348 -0.014706371 -0.12501131
-0.0048531657 -0.014635999 -0.12478855
-0.0030031095 -0.014469334 -0.12492433
-0.00099058053 -0.014608729 -0.12509772
0.0010211321 -0.0145235 -0.12485079
0.0031455879 -0.014575131 -0.1251885
0.0052121528 -0.014550287 -0.12495702
0.0070102885 -0.014510999 -0.12513936
0.0090076858 -0.014697111 -0.12492924
0.011044631 -0.014556 -0.12487964
0.012651717 -0.014625474 -0.12514339
0.014913909 -0.014539706 -0.12479509
0.016947668 -0.014661001 -0.1249115
0.019061459 -0.014594623 -0.12504889
0.021107821 -0.014574097 -0.12497781
0.023107709 -0.014478858 -0.12510434
0.024993755 -0.014619336 -0.12487803
0.026699202 -0.014627669 -0.12511279
0.029075518 -0.014627669 -0.12512429
0.030988242 -0.014621715 -0.12493016
0.032966617 -0.014611864 -0.12495741
0.034883197 -0.014603859 -0.12509172
0.03686922 -0.014550286 -0.12488312
0.038896102 -0.014563274 -0.125075
0.041169573 -0.014571294 -0.12486475
0.042855188 -0.014586001 -0.12506326
0.044927947 -0.014663588 -0.1249272
0.047294937 -0.014530446 -0.12500234
0.048801266 -0.014586002 -0.1251196
0.051063597 -0.014639031 -0.12509754
0.053093113 -0.014611 -0.12507196
0.055099092 -0.014520212 -0.12481126
0.056949984 -0.014565165 -0.12487093
0.058863256 -0.014595262 -0.12501933
0.060926959 -0.014558222 -0.12504965
0.063154534 -0.014571295 -0.12505652
0.064896069 -0.014608727 -0.12487946
0.066862106 -0.014618608 -0.12493584
0.069021635 -0.014597907 -0.1251145
0.071117111 -0.014613779 -0.124993
0.073161684 -0.014558224 -0.12488694
0.074901827 -0.014631457 -0.12497172
0.077146463 -0.014602668 -0.12489869
0.078969441 -0.014687855 -0.12514505
0.080930233 -0.014586002 -0.12499288
0.083027869 -0.014576741 -0.12495542
0.085281976 -0.014605231 -0.12499489
0.087006383 -0.014618611 -0.12495188
0.089281172 -0.014548286 -0.1248611
0.090802662 -0.014835999 -0.12506762
0.092754476 -0.014835999 -0.12496398
0.094782464 -0.014835999 -0.12542702
0.096751243 -0.014836 -0.1252386
0.098749205 -0.014835999 -0.12519145
0.10103429 -0.014835999 -0.12490583
0.10307044 -0.014835999 -0.12484268
0.10498486 -0.014835999 -0.12491471
0.10689873 -0.014836 -0.12477273
0.10889544 -0.014801758 -0.12558931
0.11107764 -0.015025203 -0.12493781
-0.11044697 -0.013594585 -0.12507933
-0.10958337 -0.013164393 -0.12490293
-0.090018995 -0.013130599 -0.12505969
-0.046456516 -0.0130727 -0.12565425
-0.044933271 -0.012801177 -0.12531437
-0.043052085 -0.012949908 -0.12537713
-0.041230462 -0.013042688 -0.12529217
-0.038718335 -0.01285239 -0.12524679
-0.037244551 -0.012985135 -0.12531316
-0.035122361 -0.013015999 -0.12522495
-0.032526121 -0.012859472 -0.12538455
-0.031204352 -0.013096917 -0.12528631
-0.028998753 -0.012827119 -0.12526476
-0.02762801 -0.012780316 -0.12553404
-0.0067920014 -0.012594913 -0.12550601
-0.0051878528 -0.012948452 -0.12525192
-0.0026479168 -0.012983058 -0.12523313
-0.0011298679 -0.013108444 -0.12522475
0.0010640845 -0.012758463 -0.12535128
0.0031072828 -0.012769232 -0.12528901
0.0048989765 -0.012966582 -0.12520251
0.0067747599 -0.012711535 -0.12548329
0.027587097 -0.012785712 -0.12548
0.028977623 -0.012829204 -0.12531754
0.031206043 -0.012850656 -0.12528169
0.03320498 -0.012860687 -0.12527461
0.035250708 -0.012889423 -0.12520956
0.036834802 -0.013054258 -0.12537058
0.038987815 -0.013014902 -0.12526537
0.040909033 -0.012729661 -0.12523942
0.043140326 -0.013168503 -0.12533866
0.045086585 -0.012941771 -0.12532848
0.046357654 -0.01269197 -0.12535606
0.089981012 -0.013025686 -0.12511721
0.1095045 -0.013040185 -0.12507138
0.11052614 -0.013686273 -0.1253054
-0.109519 -0.011201821 -0.12523647
-0.090018995 -0.011236589 -0.1251141
-0.046412215 -0.010721825 -0.12549129
-0.044974241 -0.01104837 -0.12517101
-0.042914171 -0.011077027 -0.12517101
-0.04099907 -0.010932171 -0.12517101
-0.039125048 -0.010972196 -0.12517099
-0.036933396 -0.010463444 -0.12517101
-0.035161201 -0.010879238 -0.12517098
-0.032818619 -0.010897717 -0.12517101
-0.030739382 -0.011393149 -0.12517099
-0.029176384 -0.010919896 -0.12517099
-0.027609054 -0.011094811 -0.12542892
-0.0068981624 -0.010952045 -0.12545805
-0.0051131244 -0.010771363 -0.12517099
-0.003416612 -0.011136061 -0.12517099
-0.0009983622 -0.010990799 -0.12517099
0.00093996752 -0.010848854 -0.12517098
0.0030386145 -0.01122363 -0.12517098
0.0052561825 -0.010961836 -0.12517099
0.0067501841 -0.010947481 -0.12544399
0.027554577 -0.010884333 -0.12541607
0.029136786 -0.011117145 -0.12517098
0.0311647 -0.011180483 -0.12517101
0.033144087 -0.010882816 -0.12517099
0.034973469 -0.011172637 -0.12517098
0.036950484 -0.01063716 -0.12517101
0.038722884 -0.011145906 -0.12517098
0.040678661 -0.010669444 -0.12517101
0.043096144 -0.011221929 -0.12517098
0.045229357 -0.0110195 -0.12517101
0.046415854 -0.010533107 -0.12547648
0.089980997 -0.011254434 -0.12489326
0.10948098 -0.011076176 -0.12476611
-0.109519 -0.0091977911 -0.12495147
-0.09001901 -0.0091334619 -0.1250246
-0.046498232 -0.0093358876 -0.12546444
-0.045026187 -0.0088793496 -0.12517099
-0.042968616 -0.0091019291 -0.12517098
-0.041036911 -0.008847326 -0.12517101
-0.039144766 -0.0090061231 -0.12517098
-0.037091162 -0.0089620342 -0.12517098
-0.034852345 -0.0090255849 -0.12517098
-0.033099178 -0.0090863267 -0.12517099
-0.030920202 -0.0093438905 -0.12517096
-0.029143026 -0.0088966805 -0.12517101
-0.027599517 -0.0085960384 -0.12567148
-0.0067747827 -0.0091256881 -0.12544705
-0.0048586954 -0.0092171589 -0.12517098
-0.0030592887 -0.0090092309 -0.12517101
-0.0010633449 -0.0091012642 -0.12517099
0.00074794691 -0.0091353934 -0.12517098
0.0026860137 -0.0093789464 -0.12517098
0.004851785 -0.009040094 -0.12517099
0.0067236191 -0.0088378955 -0.12539913
0.027548861 -0.0090761427 -0.12546417
0.02924999 -0.0091568306 -0.12517101
0.031125342 -0.0088967253 -0.12517099
0.032985203 -0.0092722522 -0.12517101
0.034907844 -0.0091023883 -0.12517098
0.036936179 -0.0092659937 -0.12517099
0.039185222 -0.0089538898 -0.12517098
0.04131576 -0.008856806 -0.12517101
0.043025479 -0.0090659596 -0.12517099
0.045311242 -0.009061709 -0.12517099
0.046355326 -0.0092685651 -0.12522843
0.089981005 -0.0090153245 -0.12507041
0.109481 -0.0085223811 -0.125053
-0.109519 -0.0071685663 -0.12488905
-0.090018995 -0.0069881794 -0.12493742
-0.04635302 -0.0068475478 -0.12536617
-0.045007378 -0.0071300454 -0.12517098
-0.042994712 -0.006937671 -0.12517099
-0.040644079 -0.0074618179 -0.12517101
-0.039097115 -0.0069880215 -0.12517099
-0.037223596 -0.0074262437 -0.12517101
-0.03508484 -0.0071534631 -0.12517098
-0.033076193 -0.0071019679 -0.12517101
-0.030999739 -0.0073177968 -0.12517099
-0.028930375 -0.0069592274 -0.12517101
-0.027562847 -0.006955083 -0.12550308
-0.0066113309 -0.0070988284 -0.12535471
-0.004940948 -0.0070335055 -0.12517101
-0.002892748 -0.0072671738 -0.12517098
-0.0011181644 -0.0069133891 -0.12517099
0.00087495521 -0.0069782301 -0.12517099
0.0031935144 -0.0067679742 -0.12517099
0.0050652749 -0.0070115547 -0.12517108
0.006969138 -0.0070795184 -0.1255645
0.027620157 -0.0071204873 -0.12537229
0.02916012 -0.0068993219 -0.12517098
0.030957289 -0.0069805207 -0.12517098
0.033053424 -0.0069314982 -0.12517101
0.035602342 -0.0069315294 -0.12517101
0.037308775 -0.0067413356 -0.12517101
0.039034322 -0.0072285431 -0.12517099
0.041051086 -0.0072102691 -0.12517101
0.043040205 -0.0069067292 -0.12517098
0.045145899 -0.0073875175 -0.12517101
0.046414889 -0.0071763806 -0.12556113
0.089981005 -0.0069504515 -0.12480743
0.10948099 -0.0069618649 -0.12502453
-0.109519 -0.0049105915 -0.12480007
-0.090018995 -0.0051239491 -0.12495749
-0.046438675 -0.0052042212 -0.12519875
-0.045087229 -0.0046077305 -0.12517101
-0.043242101 -0.0050504818 -0.12517099
-0.040940523 -0.0050787856 -0.12517098
-0.03909846 -0.0049855956 -0.12517099
-0.037401915 -0.0049309055 -0.12517098
-0.035084344 -0.0051024752 -0.12517099
-0.032725226 -0.0055082762 -0.12517101
-0.031237056 -0.0052529047 -0.12517098
-0.02908531 -0.0050625149 -0.12517099
-0.027634144 -0.0047137989 -0.12539272
-0.0068615265 -0.0050837747 -0.12541108
-0.005122677 -0.0054186708 -0.12517099
-0.0029366007 -0.0050920113 -0.12517101
-0.00064972817 -0.0050270041 -0.12517101
0.00099616207 -0.0053466172 -0.12517098
0.0028731229 -0.0048504528 -0.12517098
0.0050347322 -0.0050069559 -0.12517099
0.0065790042 -0.0047000558 -0.12536144
0.027620876 -0.0054242061 -0.12532578
0.028791957 -0.0052811634 -0.12517099
0.03118065 -0.0050074938 -0.12517098
0.032982253 -0.0048475731 -0.12517101
0.034944143 -0.0050647082 -0.12517096
0.037269391 -0.0046805111 -0.12517101
0.038915519 -0.0048960824 -0.12517098
0.040887918 -0.0048064492 -0.12517098
0.042888731 -0.0051397127 -0.12517101
0.04467291 -0.0047560525 -0.12517099
0.046433974 -0.0046519958 -0.12540808
0.089981012 -0.0049175825 -0.12511323
0.10948099 -0.0049950294 -0.12473594
-0.109519 -0.0030846535 -0.12482464
-0.090018995 -0.0032701727 -0.12519321
-0.046427585 -0.0028138037 -0.12547973
-0.045215368 -0.0029662801 -0.12517099
-0.042815246 -0.0033977448 -0.12517099
-0.040700462 -0.0028219025 -0.12517101
-0.038885649 -0.003168579 -0.12517099
-0.037038259 -0.0034033156 -0.12517098
-0.034786999 -0.0030081957 -0.12517101
-0.033004832 -0.0028678395 -0.12517099
-0.031026041 -0.002841702 -0.12517098
-0.029117711 -0.0027567686 -0.12517098
-0.02755714 -0.0028023005 -0.12546161
-0.0067661633 -0.0032036095 -0.12537111
-0.0050203418 -0.0028808902 -0.12517099
-0.003001394 -0.0032414238 -0.12517098
-0.0009669069 -0.0030792351 -0.12517099
0.0013228399 -0.0029227198 -0.12517101
0.0030541029 -0.0030180383 -0.12517098
0.0051505053 -0.0031336688 -0.12517099
0.0068042716 -0.0028818438 -0.12545341
0.027612235 -0.0029827985 -0.12548125
0.028855799 -0.0029411309 -0.12517099
0.031064248 -0.0027279537 -0.12517099
0.032961462 -0.002852788 -0.12517101
0.034925569 -0.0033393768 -0.12517099
0.037343856 -0.0030911805 -0.12517101
0.038782161 -0.003008263 -0.12517098
0.04081849 -0.0027612986 -0.12517099
0.042949542 -0.002964688 -0.12517096
0.045030657 -0.0029496897 -0.12517098
0.046466716 -0.0026055833 -0.12550351
0.089980997 -0.0031546268 -0.12541749
0.10948098 -0.0030406064 -0.12477585
-0.109519 -0.0011043188 -0.12490258
-0.090018995 -0.00084069668 -0.12504917
-0.046310566 -0.0006617427 -0.12522414
-0.045083541 -0.0013115112 -0.12517098
-0.043063235 -0.0010698556 -0.12517099
-0.040994938 -0.0011159608 -0.12517098
-0.038959164 -0.0011273461 -0.12517101
-0.037001871 -0.00079018623 -0.12517101
-0.034794178 -0.0010005347 -0.12517098
-0.033006769 -0.0009760008 -0.12517101
-0.031080483 -0.00079467706 -0.12517099
-0.029043281 -0.0012073844 -0.12517101
-0.027630437 -0.00098765013 -0.1252459
-0.0068850527 -0.0010676745 -0.12541823
-0.0048930813 -0.00089232938 -0.12517098
-0.0029531976 -0.00074428279 -0.12517101
-0.000557616 -0.0010120594 -0.12517101
0.0010197442 -0.00095216447 -0.12517099
0.0029496013 -0.0011381615 -0.12517096
0.0049598957 -0.0010000205 -0.12517104
0.0068411697 -0.0011429087 -0.12542984
0.027523598 -0.00080796861 -0.12547265
0.029285129 -0.0014105139 -0.12517101
0.031249326 -0.00080772518 -0.12517098
0.03308332 -0.0011058464 -0.12517101
0.034906644 -0.0010806615 -0.12517098
0.037066903 -0.0011617591 -0.12517098
0.038990363 -0.0011725936 -0.12517101
0.040824372 -0.0011116313 -0.12517098
0.043158229 -0.0011838535 -0.12517099
0.045119416 -0.0011670834 -0.12517101
0.046397548 -0.00088786567 -0.12555961
0.089980997 -0.001295103 -0.12501192
0.10948098 -0.00099251454 -0.12521127
-0.109519 0.0010199921 -0.12514415
-0.090019003 0.001289244 -0.1253272
-0.04640327 0.00090002915 -0.12539251
-0.044904869 0.001037508 -0.12517099
-0.043104801 0.0010565015 -0.12517101
-0.041560706 0.0011126151 -0.12517099
-0.038901735 0.0011801657 -0.12517098
-0.036822874 0.00083736156 -0.12517101
-0.034799729 0.00074134505 -0.12517101
-0.033121277 0.00088663661 -0.12517099
-0.031213097 0.0011524402 -0.12517101
-0.028829698 0.0011179787 -0.12517099
-0.027518999 0.00095184305 -0.12557352
-0.0067232097 0.00098404835 -0.12538038
-0.0048817229 0.00081961189 -0.12517099
-0.0033982161 0.00098583475 -0.12517099
-0.0010639568 0.00096041599 -0.12517098
0.00089269417 0.0012741798 -0.12517098
0.0029986501 0.0011498168 -0.12517098
0.0050426135 0.0010399506 -0.12517098
0.0068551945 0.00070263172 -0.12544139
0.027524406 0.0010983049 -0.12551576
0.028980175 0.0011582373 -0.12517098
0.031104881 0.0010790512 -0.12517099
0.033286285 0.0013082519 -0.12517101
0.035009373 0.0013294115 -0.12517101
0.036840346 0.00086379255 -0.12517099
0.039210901 0.00097229064 -0.12517101
0.041133221 0.00076456484 -0.12517098
0.0430842 0.0010474225 -0.12517101
0.045090206 0.00081361044 -0.12517098
0.046411589 0.001111067 -0.12542312
0.089981012 0.00068809779 -0.12518103
0.10948098 0.00086513761 -0.12485225
-0.109519 0.0029437388 -0.12505528
-0.090018995 0.0026773657 -0.12502486
-0.04640219 0.0029889445 -0.12531471
-0.045529243 0.0030856505 -0.12517101
-0.043021757 0.0027818047 -0.12517099
-0.041242454 0.0031060078 -0.12517099
-0.038863856 0.0029973059 -0.12517099
-0.036747754 0.0033397025 -0.12517101
-0.035061583 0.0029511289 -0.12517101
-0.032931775 0.0031405941 -0.12517099
-0.030805189 0.0029190369 -0.12517098
-0.029120756 0.003100862 -0.12517099
-0.027565373 0.00287237 -0.12551194
-0.0070484448 0.0030320485 -0.12550588
-0.0050622928 0.0028169444 -0.12517099
-0.0027393007 0.0029715812 -0.12517099
-0.0011137766 0.0028498725 -0.12517099
0.001015085 0.003297807 -0.12517101
0.0028127395 0.0029739125 -0.12517101
0.004901242 0.0029329136 -0.12517105
0.0064939847 0.0028615508 -0.1252725
0.027736453 0.0031026772 -0.12537773
0.028854512 0.0027334697 -0.12517099
0.031210756 0.0028895973 -0.12517098
0.033061523 0.0029086368 -0.12517099
0.034809597 0.0030771319 -0.12517099
0.036413185 0.0029171573 -0.12517101
0.039098766 0.0029500464 -0.12517099
0.040984005 0.0031308737 -0.12517098
0.042955179 0.002719878 -0.12517101
0.045227528 0.0027726071 -0.12517099
0.046345379 0.0030475617 -0.12539299
0.089981005 0.0032360845 -0.12455712
0.10948098 0.0031667387 -0.12491615
-0.109519 0.0051444238 -0.12496547
-0.090018995 0.0050773914 -0.12487264
-0.046508577 0.0052438485 -0.1255362
-0.045028448 0.0053030574 -0.12517101
-0.043184288 0.0047332067 -0.12517101
-0.041306384 0.0048136809 -0.12517098
-0.039314393 0.0050344588 -0.12517101
-0.036933873 0.0049267574 -0.12517099
-0.034988623 0.0048078438 -0.12517098
-0.033210948 0.0050877812 -0.12517099
-0.030686641 0.005033507 -0.12517098
-0.029056896 0.005193457 -0.12517101
-0.027645171 0.0048787398 -0.12523057
-0.0068786158 0.0050376412 -0.12546697
-0.00515862 0.0049666166 -0.12517098
-0.0029720378 0.0049274713 -0.12517101
-0.00097721256 0.0049306941 -0.12517101
0.00086586218 0.0051087309 -0.12517099
0.0031340711 0.0050403168 -0.12517098
0.0046441341 0.0051166792 -0.12517099
0.0068481318 0.0047311028 -0.12544079
0.027585877 0.0047841812 -0.12544058
0.028791239 0.0053344974 -0.12517101
0.031324834 0.0050254385 -0.12517099
0.033019599 0.0050602281 -0.12517098
0.035295472 0.0048013432 -0.12517098
0.036764763 0.0049821571 -0.12517099
0.038867667 0.0047703572 -0.12517101
0.040990353 0.0050364523 -0.12517099
0.04277309 0.0050587892 -0.12517099
0.045093056 0.004922092 -0.12517098
0.046433717 0.0050235516 -0.12539797
0.08998099 0.0050472924 -0.12510101
0.10948099 0.0049582804 -0.12493458
-0.109519 0.0066928919 -0.1249726
-0.090018995 0.0069164713 -0.12519701
-0.046452586 0.0069276043 -0.12557521
-0.045183957 0.0071492237 -0.12517099
-0.043101709 0.0065857968 -0.12517099
-0.041050065 0.0070282291 -0.12517098
-0.039369442 0.0070123076 -0.12517098
-0.037148263 0.006961138 -0.12517099
-0.034773052 0.0069606337 -0.12517098
-0.032948375 0.0067271269 -0.12517101
-0.031198408 0.0072649918 -0.12517101
-0.029078642 0.0071403389 -0.12517098
-0.027561918 0.0069576264 -0.12526761
-0.0067803911 0.006834222 -0.12541032
-0.0050989985 0.0069949105 -0.12517098
-0.0028674351 0.0070063779 -0.12517101
-0.00096280419 0.0070045344 -0.12517101
0.0013511642 0.006896114 -0.12517099
0.0032689967 0.0069662319 -0.12517099
0.005180357 0.0070171473 -0.12517101
0.0064706197 0.0068045463 -0.1253038
0.027661121 0.0070535308 -0.12535432
0.028973449 0.0070884326 -0.12517098
0.031310029 0.0069682924 -0.12517099
0.033023745 0.0070655686 -0.12517101
0.034956098 0.0066865445 -0.12517099
0.037110731 0.0066996459 -0.12517101
0.038560271 0.0070069577 -0.12517099
0.04093786 0.0067621674 -0.12517099
0.042944495 0.0066922773 -0.12517099
0.044975735 0.0072136256 -0.12517098
0.0464589 0.0069964319 -0.12546062
0.089980997 0.0070502255 -0.125055
0.10948098 0.0073074121 -0.12516417
-0.109519 0.0091276057 -0.12526456
-0.090018995 0.0089229066 -0.12469959
-0.046485253 0.0087900516 -0.12564109
-0.045063768 0.008966662 -0.12517099
-0.042740528 0.0087774182 -0.12517098
-0.041305605 0.0089577641 -0.12517098
-0.039457191 0.0086973133 -0.12517101
-0.036660466 0.0091765579 -0.12517101
-0.034956444 0.0091077564 -0.12517101
-0.032985073 0.0089623071 -0.12517099
-0.030723207 0.008907456 -0.12517099
-0.029091338 0.0087208711 -0.12517101
-0.027610015 0.0088681439 -0.12549195
-0.006879698 0.0089541655 -0.12544805
-0.005143099 0.009157679 -0.12517098
-0.0027845495 0.0091103977 -0.12517098
-0.00085775513 0.0089775594 -0.12517101
0.0011331659 0.0089157922 -0.12517099
0.003133706 0.0086752549 -0.12517099
0.0050680628 0.0090490095 -0.12517101
0.0069133858 0.0090895826 -0.1254627
0.027751675 0.0089573255 -0.12517101
0.028915124 0.0093205934 -0.12517101
0.031001758 0.0087713823 -0.12517101
0.032845594 0.0090904189 -0.12517098
0.035302371 0.008908106 -0.12517099
0.037168633 0.0090914434 -0.12517099
0.039117541 0.0089335246 -0.12517099
0.040858306 0.0089838915 -0.12517099
0.042899467 0.0087557286 -0.12517101
0.045054235 0.0089830291 -0.12517098
0.046288006 0.0089141466 -0.12540777
0.089980982 0.0091277631 -0.12479429
0.10948098 0.009150275 -0.12547632
-0.10951412 0.01099246 -0.12457124
-0.090018995 0.01135381 -0.12492863
-0.046395615 0.010433604 -0.12527247
-0.044921711 0.010730605 -0.12523834
-0.043112542 0.010908989 -0.12525342
-0.040962752 0.010927163 -0.1253645
-0.039286621 0.010880076 -0.12530385
-0.036765277 0.010805166 -0.12536556
-0.034918193 0.010903458 -0.1252699
-0.032792479 0.010972176 -0.1253036
-0.031136459 0.010598876 -0.1253901
-0.028779734 0.010947496 -0.12537009
-0.027732896 0.010773495 -0.12542449
-0.0069375224 0.010966185 -0.12551099
-0.0050292928 0.010929022 -0.12517099
-0.003071954 0.01107826 -0.12517098
-0.0012249051 0.010962556 -0.12517099
0.0011283922 0.011113528 -0.12517098
0.0027508643 0.011151399 -0.12517099
0.0050091222 0.011052933 -0.12517098
0.0070627681 0.011124196 -0.12557596
0.027511075 0.01077916 -0.12565139
0.028783547 0.010918747 -0.12540837
0.030987307 0.011164001 -0.125661
0.033111241 0.010775731 -0.12539381
0.03495615 0.010915807 -0.12534498
0.037012931 0.010758264 -0.12545916
0.039007004 0.010802594 -0.12533404
0.041092329 0.01084295 -0.12531738
0.042977188 0.010781992 -0.12533434
0.044852328 0.010819131 -0.12536506
0.046361089 0.010618089 -0.12552688
0.08998099 0.010927229 -0.12500045
0.10947228 0.011377304 -0.12498377
-0.10928857 0.012887528 -0.12500297
-0.090018995 0.013413023 -0.12482236
-0.0068173036 0.013312484 -0.12541088
-0.0049414565 0.013007613 -0.12517098
-0.0028841409 0.012919642 -0.12517098
-0.00098783476 0.01293957 -0.12517101
0.0011307339 0.013299976 -0.12517098
0.0030601742 0.012956716 -0.12517099
0.0051240316 0.013097011 -0.12517098
0.0070008594 0.013087871 -0.12551017
0.089980997 0.012926774 -0.12487121
0.1092272 0.012936072 -0.12495063
-0.10833657 0.014631887 -0.1248772
-0.10714573 0.015560922 -0.12521634
-0.090018995 0.014921693 -0.12521221
-0.088952526 0.015663998 -0.12506159
-0.086740114 0.015663998 -0.1250059
-0.084996134 0.015663998 -0.12515888
-0.083133265 0.015663998 -0.12477283
-0.080835767 0.015663998 -0.12510289
-0.079152867 0.015663998 -0.12522422
-0.077084213 0.015663998 -0.12503451
-0.074650109 0.015663998 -0.12491676
-0.072772086 0.015663998 -0.1251049
-0.071284667 0.015663998 -0.124976
-0.068974741 0.015663998 -0.1250021
-0.067193829 0.015663998 -0.12482478
-0.064963996 0.015663998 -0.12460681
-0.062987201 0.015663998 -0.12503894
-0.060782015 0.015663998 -0.12484923
-0.059020538 0.015663998 -0.12487064
-0.056989174 0.015663998 -0.12491563
-0.055015594 0.015663998 -0.12492199
-0.05279785 0.015663998 -0.12489681
-0.051079903 0.015663998 -0.12529279
-0.048870098 0.015663998 -0.12501556
-0.046963956 0.015663998 -0.12480189
-0.04481617 0.015663998 -0.12461419
-0.043054592 0.015664 -0.12469477
-0.041184597 0.015663998 -0.12522162
-0.039145634 0.015663998 -0.12504193
-0.036957845 0.015663998 -0.12488091
-0.035036985 0.015663998 -0.12511268
-0.033160474 0.015663998 -0.12512758
-0.031349309 0.015663998 -0.12497362
-0.028775008 0.015663998 -0.12492383
-0.027016629 0.015663998 -0.12482543
-0.025126694 0.015663998 -0.12511101
-0.022754818 0.015663998 -0.12485315
-0.021283122 0.015663998 -0.12511864
-0.018750921 0.015663998 -0.12498109
-0.01694425 0.015663998 -0.12505008
-0.015319238 0.015663998 -0.1247337
-0.013192163 0.015663998 -0.12544009
-0.010962642 0.015663998 -0.12512483
-0.0090625091 0.015663998 -0.12501213
-0.0070857783 0.015430892 -0.12521836
-0.0052178074 0.015218305 -0.12515342
-0.0029513976 0.015347328 -0.12507449
-0.00082702655 0.015376568 -0.12514159
0.0011672263 0.015219238 -0.12513138
0.003041704 0.015411559 -0.12507541
0.004649824 0.015435397 -0.12511028
0.0069995238 0.015297903 -0.1253332
0.0090478016 0.015663998 -0.12531795
0.010907138 0.015663998 -0.12506966
0.012874712 0.015663998 -0.12515908
0.01501794 0.015663998 -0.12487451
0.016939299 0.015663998 -0.12478792
0.019057428 0.015663998 -0.12493332
0.020839741 0.015663998 -0.1250286
0.023206374 0.015663998 -0.12522036
0.025026212 0.015663998 -0.12511103
0.02672023 0.015663998 -0.12529735
0.029091172 0.015663998 -0.12495691
0.031218505 0.015663998 -0.12479898
0.032831248 0.015663998 -0.12497479
0.035053752 0.015663998 -0.1248623
0.037071869 0.015663998 -0.12475346
0.0390816 0.015663998 -0.12502499
0.041056547 0.015663998 -0.12505616
0.04296701 0.015663998 -0.12498257
0.044935625 0.015663998 -0.12504609
0.04675851 0.015663998 -0.12484322
0.048839841 0.015663998 -0.12487757
0.051030979 0.015663998 -0.12489456
0.053325552 0.015664 -0.12520652
0.054861862 0.015663998 -0.12497087
0.05709086 0.015664 -0.12508227
0.059221104 0.015663998 -0.12489983
0.060822506 0.015663998 -0.12503316
0.06275744 0.015663998 -0.12521476
0.06476254 0.015663998 -0.12516351
0.06701678 0.015663998 -0.12492001
0.068874806 0.015664 -0.12492009
0.071301095 0.015663998 -0.12502268
0.073142916 0.015663998 -0.12515876
0.074999899 0.015663998 -0.12475134
0.076968104 0.015663998 -0.12472871
0.07885842 0.015663998 -0.12516913
0.081219502 0.015663998 -0.12468399
0.083148323 0.015663998 -0.1249974
0.08511088 0.015663998 -0.12527545
0.086992308 0.015664 -0.12484224
0.089752495 0.015212609 -0.12506464
0.10679878 0.015706362 -0.12502328
0.10843449 0.014500671 -0.12509847
-0.10606692 0.016034622 -0.12500705
-0.10495321 0.016141471 -0.12497132
-0.10305155 0.016164001 -0.12504007
-0.10091693 0.016163999 -0.12511928
-0.099205278 0.016164001 -0.12523419
-0.097296782 0.016164001 -0.12510778
-0.095203131 0.016164001 -0.12509845
-0.093040608 0.016164001 -0.12507129
-0.090961248 0.016164001 -0.12490588
-0.089101188 0.016164001 -0.12489974
-0.087014206 0.016163999 -0.12526585
-0.084788084 0.016163999 -0.12465779
-0.082849644 0.016164001 -0.12495936
-0.080983005 0.016164001 -0.12507515
-0.079175726 0.016164001 -0.12508219
-0.077206254 0.016164001 -0.12484736
-0.07546033 0.016164001 -0.12503806
-0.073156983 0.016163999 -0.12505683
-0.070774369 0.016163997 -0.12535299
-0.069170251 0.016163999 -0.12494799
-0.067313023 0.016164001 -0.12493654
-0.065270714 0.016164001 -0.12460892
-0.063215576 0.016163999 -0.12486176
-0.061276909 0.016163999 -0.12499104
-0.059097599 0.016164001 -0.12497132
-0.056834865 0.016164001 -0.12502232
-0.054952279 0.016164001 -0.12500328
-0.053057961 0.016164001 -0.12497174
-0.050919991 0.016164001 -0.12515715
-0.04873877 0.016164001 -0.12480603
-0.046966303 0.016163999 -0.12510692
-0.045361746 0.016163999 -0.12493661
-0.043382265 0.016164001 -0.12511989
-0.040963925 0.016164001 -0.12464683
-0.038950082 0.016164001 -0.12511224
-0.036926165 0.016164001 -0.12505071
-0.034812842 0.016164001 -0.12482834
-0.032756865 0.016164001 -0.12485723
-0.031181794 0.016163999 -0.12508874
-0.029028703 0.016164001 -0.12504445
-0.026982276 0.016164001 -0.12519719
-0.024464084 0.016164001 -0.12496097
-0.023040803 0.016163999 -0.12519531
-0.021001164 0.016164001 -0.12503546
-0.019004395 0.016164001 -0.12519528
-0.017046398 0.016164001 -0.1249967
-0.01561203 0.016163999 -0.12504558
-0.01296629 0.016164001 -0.12486276
-0.010980493 0.016163999 -0.12493044
-0.0086903814 0.016164001 -0.12514333
-0.0074697235 0.016163997 -0.12506235
-0.0053004134 0.016146714 -0.12472419
-0.003366082 0.016147293 -0.12455678
-0.0012810229 0.016137781 -0.12476993
0.0010102831 0.016163999 -0.1246831
0.0030960848 0.016150793 -0.12455276
0.0046871519 0.016132854 -0.1247821
0.0074916515 0.016148878 -0.1251687
0.0088140573 0.016164001 -0.12532613
0.011103309 0.016163999 -0.12483683
0.013291269 0.016163999 -0.12514167
0.014955846 0.016164001 -0.12484573
0.017178427 0.016164001 -0.12503955
0.018982848 0.016164001 -0.12495878
0.021127226 0.016163999 -0.12509394
0.022833068 0.016163999 -0.1248819
0.025033243 0.016163999 -0.12512207
0.027019128 0.016163999 -0.12486802
0.028876463 0.016163999 -0.12511979
0.030821104 0.016163999 -0.12492725
0.03282918 0.016163999 -0.12486982
0.035107125 0.016164001 -0.12501574
0.036638029 0.016163999 -0.1250982
0.039047878 0.016163999 -0.12497809
0.041070253 0.016164001 -0.12502033
0.042955197 0.016164001 -0.1251134
0.044975575 0.016164001 -0.12482075
0.046775281 0.016163999 -0.12507431
0.048875093 0.016164001 -0.12494279
0.050938323 0.016164001 -0.12496904
0.052957516 0.016164001 -0.12511767
0.054742411 0.016164001 -0.12503944
0.057236407 0.016164001 -0.12518278
0.059021518 0.016164001 -0.12522098
0.061002642 0.016163999 -0.12515669
0.062937893 0.016164001 -0.1248823
0.065011695 0.016164001 -0.12515053
0.067078725 0.016164001 -0.12497137
0.068978198 0.016163999 -0.12497164
0.071551405 0.016163999 -0.12530151
0.073041327 0.016164001 -0.12484026
