# .PCD v0.7 - Point Cloud Data file format
VERSION 0.7
FIELDS x y z rgb
SIZE 4 4 4 4
TYPE F F F U
COUNT 1 1 1 1
WIDTH 1059
HEIGHT 1
VIEWPOINT 0 0 0 1 0 0 0
POINTS 1059
DATA ascii
-0.34735158 0.051647026 0.79292822 4278190080
-0.34535536 0.051651388 0.79299521 4278190080
-0.34335881 0.051655751 0.79306215 4278190080
-0.34136194 0.051660117 0.79312921 4278190080
-0.33936474 0.051664483 0.7931962 4278190080
-0.33736715 0.051668841 0.79326314 4278190080
-0.33536929 0.051673211 0.79333025 4278190080
-0.33337104 0.051677577 0.79339725 4278190080
-0.33137247 0.051681943 0.7934643 4278190080
-0.32937357 0.051686313 0.79353136 4278190080
-0.32737431 0.051690679 0.79359841 4278190080
-0.32537472 0.051695053 0.79366553 4278190080
-0.32337481 0.051699419 0.79373258 4278190080
-0.32137451 0.051703785 0.79379964 4278190080
-0.31937394 0.051708162 0.79386681 4278190080
-0.31737301 0.051712532 0.79393393 4278190080
-0.31537172 0.051716909 0.7940011 4278190080
-0.31337011 0.051721279 0.79406822 4278190080
-0.31136814 0.051725652 0.79413533 4278190080
-0.30936587 0.051730029 0.79420257 4278190080
-0.30736324 0.051734407 0.79426974 4278190080
-0.30536029 0.051738784 0.79433697 4278190080
-0.30335698 0.051743161 0.79440415 4278190080
-0.30135331 0.051747534 0.79447132 4278190080
-0.29934931 0.051751915 0.79453856 4278190080
-0.29734498 0.051756296 0.79460579 4278190080
-0.29534033 0.051760674 0.79467303 4278190080
-0.29333532 0.051765058 0.79474032 4278190080
-0.29132995 0.051769435 0.79480755 4278190080
-0.28932431 0.051773824 0.79487491 4278190080
-0.28731826 0.051778201 0.79494214 4278190080
-0.28531191 0.051782586 0.79500943 4278190080
-0.2833052 0.051786974 0.79507679 4278190080
-0.28129816 0.051791355 0.79514408 4278190080
-0.2792908 0.051795747 0.79521149 4278190080
-0.27728304 0.051800128 0.79527879 4278190080
-0.27566162 0.051877279 0.79646325 4278190080
-0.27516136 0.052168138 0.80092877 4278190080
-0.27465546 0.05246228 0.80544466 4278190080
-0.27414384 0.052759759 0.8100118 4278190080
-0.2736263 0.05306061 0.81463075 4278190080
-0.27310282 0.053364918 0.81930274 4278190080
-0.27257332 0.053672738 0.82402861 4278190080
-0.27203766 0.053984128 0.82880932 4278190080
-0.27149576 0.05429915 0.83364582 4278190080
-0.27094752 0.054617882 0.83853924 4278190080
-0.27039278 0.054940365 0.8434903 4278190080
0.18443945 0.057008557 0.87524289 4278190080
0.18652803 0.056963649 0.87455344 4278190080
0.18877007 0.056966115 0.87459129 4278190080
0.19102061 0.056971062 0.87466723 4278190080
0.19327144 0.056975976 0.87474269 4278190080
0.19552268 0.056980893 0.87481821 4278190080
0.19777428 0.05698581 0.87489367 4278190080
0.20002605 0.056990661 0.87496817 4278190080
0.2022786 0.056995627 0.87504441 4278190080
0.20453139 0.057000551 0.87511998 4278190080
0.20678456 0.057005472 0.87519556 4278190080
0.20903812 0.057010397 0.87527114 4278190080
0.21129207 0.057015322 0.87534678 4278190080
0.21354622 0.057020195 0.87542158 4278190080
0.21580096 0.057025123 0.87549722 4278190080
0.2180561 0.057030056 0.87557298 4278190080
0.22031163 0.057034992 0.87564874 4278190080
0.22256753 0.05703992 0.87572443 4278190080
0.22441512 0.056941152 0.87420803 4278190080
0.22663687 0.056938328 0.8741647 4278190080
0.2288895 0.056943242 0.8742401 4278190080
0.23114251 0.056948155 0.87431556 4278190080
0.23339595 0.056953076 0.87439114 4278190080
0.23564973 0.056957994 0.8744666 4278190080
0.23790391 0.056962907 0.87454206 4278190080
0.2401585 0.056967832 0.87461764 4278190080
0.24241371 0.056972809 0.87469405 4278190080
0.24466842 0.056977578 0.8747673 4278190080
0.24692383 0.056982424 0.87484169 4278190080
0.24917999 0.056987349 0.87491733 4278190080
0.25143671 0.056992322 0.87499368 4278190080
0.25369409 0.056997351 0.87507087 4278190080
0.25595185 0.057002377 0.875148 4278190080
0.25820941 0.057007276 0.87522322 4278190080
0.26046723 0.057012141 0.8752979 4278190080
0.26272538 0.057016999 0.87537253 4278190080
0.26498425 0.057021927 0.87544817 4278190080
0.26725224 0.057028722 0.87555248 4278190080
0.26952767 0.057036974 0.87567919 4278190080
0.27179721 0.057043862 0.87578493 4278190080
0.27406663 0.057050601 0.87588841 4278190080
0.27633512 0.057057049 0.87598741 4278190080
0.27859735 0.057062108 0.87606508 4278190080
0.28085911 0.057066988 0.87614 4278190080
0.28311676 0.057070963 0.87620103 4278190080
0.28536981 0.057073966 0.87624711 4278190080
0.28761971 0.057076287 0.87628275 4278190080
0.28986979 0.057078604 0.87631834 4278190080
0.29212251 0.057081413 0.87636143 4278190080
0.29438543 0.057086147 0.87643415 4278190080
0.29664984 0.057091102 0.8765102 4278190080
0.29891467 0.05709606 0.87658632 4278190080
0.30117983 0.057101011 0.87666231 4278190080
0.30344546 0.05710597 0.87673849 4278190080
0.30571142 0.057110924 0.87681454 4278190080
0.30797783 0.057115886 0.87689072 4278190080
0.31024456 0.057120841 0.87696677 4278190080
0.31251174 0.057125803 0.87704295 4278190080
0.31477934 0.057130769 0.87711918 4278190080
0.31704727 0.057135724 0.8771953 4278190080
0.31931561 0.057140689 0.87727153 4278190080
0.32158434 0.057145651 0.87734771 4278190080
0.32385349 0.057150617 0.87742394 4278190080
0.326123 0.057155579 0.87750012 4278190080
0.32839295 0.057160549 0.87757641 4278190080
0.33066329 0.057165518 0.8776527 4278190080
0.33293399 0.057170484 0.87772894 4278190080
0.33520514 0.057175457 0.87780529 4278190080
0.33747661 0.057180423 0.87788153 4278190080
0.33974853 0.057185397 0.87795788 4278190080
0.34202078 0.057190362 0.87803411 4278190080
0.3442935 0.057195339 0.87811053 4278190080
0.34656662 0.057200316 0.87818694 4278190080
0.34884006 0.057205286 0.87826324 4278190080
0.35111398 0.057210263 0.87833965 4278190080
0.35338822 0.057215236 0.878416 4278190080
0.35566288 0.057220213 0.87849241 4278190080
0.35793796 0.05722519 0.87856883 4278190080
0.36021343 0.057230171 0.8786453 4278190080
0.36248928 0.057235152 0.87872177 4278190080
0.36476552 0.057240129 0.87879819 4278190080
0.36704218 0.057245109 0.87887466 4278190080
0.3693192 0.05725009 0.87895113 4278190080
0.37159666 0.057255074 0.87902766 4278190080
0.37387452 0.057260059 0.8791042 4278190080
0.37689027 0.057377327 0.88090456 4278190080
0.37917322 0.057382297 0.88098085 4278190080
0.38145605 0.057387196 0.88105607 4278190080
0.38377306 0.057397146 0.88120884 4278190080
0.38615739 0.057416987 0.88151348 4278190080
0.38871863 0.057462756 0.88221616 4278190080
-0.43222117 0.053397954 0.78887367 4278190080
-0.43024227 0.053402435 0.78893989 4278190080
-0.42826304 0.05340692 0.78900617 4278190080
-0.42628351 0.053411409 0.78907245 4278190080
-0.42430362 0.053415895 0.78913873 4278190080
-0.42232338 0.05342038 0.78920501 4278190080
-0.42034286 0.053424872 0.78927135 4278190080
-0.41836196 0.053429358 0.78933764 4278190080
-0.41638073 0.053433847 0.78940398 4278190080
-0.41439918 0.053438339 0.78947031 4278190080
-0.41241732 0.053442832 0.78953671 4278190080
-0.41043511 0.053447325 0.78960305 4278190080
-0.40845257 0.053451817 0.78966945 4278190080
-0.40646967 0.05345631 0.78973579 4278190080
-0.40448642 0.053460799 0.78980213 4278190080
-0.40250286 0.053465292 0.78986853 4278190080
-0.40051901 0.053469792 0.78993499 4278190080
-0.39853477 0.053474285 0.79000139 4278190080
-0.39655024 0.053478785 0.79006785 4278190080
-0.39456534 0.053483285 0.79013431 4278190080
-0.39258015 0.053487781 0.79020077 4278190080
-0.39059457 0.053492282 0.79026723 4278190080
-0.38860872 0.053496782 0.79033375 4278190080
-0.38662249 0.053501286 0.79040027 4278190080
-0.38463593 0.053505786 0.79046673 4278190080
-0.38264906 0.05351029 0.7905333 4278190080
-0.38066185 0.053514794 0.79059982 4278190080
-0.37867427 0.053519297 0.79066634 4278190080
-0.37668639 0.053523801 0.79073292 4278190080
-0.37469816 0.053528309 0.7907995 4278190080
-0.3727096 0.053532816 0.79086608 4278190080
-0.37072071 0.053537324 0.79093266 4278190080
-0.36873147 0.053541828 0.79099923 4278190080
-0.36674193 0.053546339 0.79106587 4278190080
-0.36475196 0.053550843 0.79113239 4278190080
-0.36276183 0.053555366 0.79119921 4278190080
-0.36077124 0.053559877 0.79126585 4278190080
-0.35878032 0.053564388 0.79133248 4278190080
-0.35678911 0.053568907 0.79139924 4278190080
-0.35479754 0.053573415 0.79146588 4278190080
-0.35280567 0.053577937 0.7915327 4278190080
-0.35081342 0.053582452 0.79159939 4278190080
-0.34882084 0.053586967 0.79166609 4278190080
-0.34682795 0.05359149 0.79173291 4278190080
-0.34483469 0.053596005 0.7917996 4278190080
-0.34284112 0.053600527 0.79186642 4278190080
-0.34084719 0.053605046 0.79193318 4278190080
-0.33885294 0.053609569 0.792 4278190080
-0.33685836 0.053614091 0.79206681 4278190080
-0.33486342 0.053618614 0.79213363 4278190080
-0.33286816 0.053623136 0.79220045 4278190080
-0.33087257 0.053627666 0.79226732 4278190080
-0.32887661 0.053632189 0.79233414 4278190080
-0.32688037 0.053636719 0.79240108 4278190080
-0.32488373 0.053641241 0.79246789 4278190080
-0.32288679 0.053645767 0.79253477 4278190080
-0.32088953 0.053650297 0.7926017 4278190080
-0.31889188 0.053654827 0.79266858 4278190080
-0.31689397 0.053659361 0.79273558 4278190080
-0.31489563 0.053663887 0.79280245 4278190080
-0.312897 0.053668417 0.79286939 4278190080
-0.31089804 0.053672954 0.79293638 4278190080
-0.30889872 0.053677484 0.79300332 4278190080
-0.30689907 0.053682014 0.79307026 4278190080
-0.3048991 0.053686552 0.79313731 4278190080
-0.30289879 0.053691089 0.79320431 4278190080
-0.30089813 0.053695627 0.79327136 4278190080
-0.29889712 0.05370016 0.79333836 4278190080
-0.29689577 0.053704698 0.79340535 4278190080
-0.2948941 0.053709235 0.79347241 4278190080
-0.2928921 0.053713776 0.79353946 4278190080
-0.29088977 0.053718317 0.79360658 4278190080
-0.28888705 0.053722855 0.79367363 4278190080
-0.28688401 0.053727396 0.79374069 4278190080
-0.28488067 0.053731941 0.79380786 4278190080
-0.28287694 0.053736482 0.79387492 4278190080
-0.28087291 0.053741023 0.79394203 4278190080
-0.27886853 0.053745572 0.79400921 4278190080
-0.27686378 0.053750113 0.79407632 4278190080
-0.27606612 0.053990792 0.79763198 4278190080
-0.27556741 0.054293949 0.80211067 4278190080
-0.27506307 0.054600533 0.80663997 4278190080
-0.27455297 0.054910593 0.81122065 4278190080
-0.274037 0.055224184 0.81585348 4278190080
-0.27351508 0.055541378 0.82053953 4278190080
-0.27298716 0.05586224 0.82527977 4278190080
-0.2724531 0.056186825 0.83007503 4278190080
-0.27191278 0.056515206 0.83492637 4278190080
-0.27136612 0.056847449 0.83983475 4278190080
-0.27081299 0.057183623 0.84480119 4278190080
0.18227388 0.05926697 0.87557948 4278190080
0.18408844 0.05913144 0.87357724 4278190080
0.18623254 0.059103739 0.87316799 4278190080
0.18847921 0.059108865 0.87324375 4278190080
0.19072624 0.059113979 0.87331927 4278190080
0.19297357 0.059119068 0.87339449 4278190080
0.1952213 0.059124164 0.87346977 4278190080
0.1974694 0.059129257 0.87354499 4278190080
0.19971788 0.059134346 0.87362015 4278190080
0.20196676 0.059139442 0.87369543 4278190080
0.20421605 0.059144538 0.87377077 4278190080
0.20646572 0.059149638 0.87384611 4278190080
0.2087158 0.059154741 0.87392151 4278190080
0.21096639 0.059159886 0.87399751 4278190080
0.21321686 0.059164885 0.87407136 4278190080
0.21546811 0.059169997 0.87414688 4278190080
0.21771975 0.059175111 0.8742224 4278190080
0.21997175 0.059180219 0.87429786 4278190080
0.22222416 0.05918533 0.87437338 4278190080
0.22403841 0.0590748 0.87274051 4278190080
0.22628714 0.059079893 0.87281573 4278190080
0.22853625 0.059084982 0.87289089 4278190080
0.23078579 0.059090082 0.87296623 4278190080
0.23303568 0.059095174 0.87304145 4278190080
0.23528595 0.059100263 0.87311667 4278190080
0.23753665 0.059105363 0.87319201 4278190080
0.23978771 0.059110459 0.87326729 4278190080
0.24203935 0.059115604 0.87334329 4278190080
0.24429083 0.05912061 0.87341726 4278190080
0.24654245 0.059125565 0.87349045 4278190080
0.24879511 0.059130676 0.87356597 4278190080
0.25104812 0.05913578 0.87364137 4278190080
0.25330195 0.059140984 0.87371826 4278190080
0.25555617 0.059146188 0.87379515 4278190080
0.25781071 0.059151374 0.87387174 4278190080
0.26006553 0.059156537 0.87394804 4278190080
0.26234224 0.059166547 0.87409592 4278190080
0.26461756 0.059176076 0.8742367 4278190080
0.26689357 0.059185598 0.87437737 4278190080
0.26916552 0.059194077 0.8745026 4278190080
0.27143708 0.059202328 0.87462449 4278190080
0.27370259 0.059209134 0.87472504 4278190080
0.27596858 0.059215933 0.87482548 4278190080
0.27822912 0.059221458 0.87490714 4278190080
0.28048483 0.05922588 0.87497246 4278190080
0.28274006 0.059230134 0.87503529 4278190080
0.28499451 0.05923415 0.87509465 4278190080
0.28724208 0.059236698 0.87513226 4278190080
0.28948826 0.059238907 0.87516493 4278190080
0.29173213 0.059240628 0.87519032 4278190080
0.29397461 0.059242032 0.87521106 4278190080
0.29621714 0.059243429 0.87523174 4278190080
0.29845983 0.059244834 0.87525249 4278190080
0.30071378 0.059248444 0.87530577 4278190080
0.30297577 0.059253566 0.87538147 4278190080
0.30523819 0.059258699 0.87545729 4278190080
0.30750099 0.059263825 0.87553304 4278190080
0.30976421 0.059268963 0.87560892 4278190080
0.31202781 0.059274103 0.87568486 4278190080
0.31429181 0.059279237 0.87576073 4278190080
0.31655622 0.059284382 0.87583673 4278190080
0.31882101 0.059289522 0.87591267 4278190080
0.3210862 0.059294667 0.87598866 4278190080
0.3233518 0.059299812 0.87606466 4278190080
0.32561773 0.059304949 0.87614059 4278190080
0.32788414 0.059310097 0.87621665 4278190080
0.33015087 0.059315242 0.87629265 4278190080
0.33241802 0.05932039 0.8763687 4278190080
0.33468556 0.059325535 0.8764447 4278190080
0.33695352 0.059330687 0.87652081 4278190080
0.33922186 0.059335839 0.87659693 4278190080
0.3414906 0.059340987 0.87667298 4278190080
0.34375972 0.059346139 0.8767491 4278190080
0.34602919 0.059351288 0.87682515 4278190080
0.34829912 0.059356444 0.87690133 4278190080
0.35056943 0.059361596 0.87697744 4278190080
0.35284013 0.059366751 0.87705362 4278190080
0.35511121 0.059371907 0.87712979 4278190080
0.35738271 0.059377063 0.87720597 4278190080
0.35965461 0.059382223 0.8772822 4278190080
0.36192685 0.059387375 0.87735832 4278190080
0.36419955 0.059392542 0.87743461 4278190080
0.36647257 0.059397697 0.87751079 4278190080
0.36874607 0.059402861 0.87758708 4278190080
0.37101993 0.059408024 0.87766337 4278190080
0.37329417 0.059413187 0.87773961 4278190080
0.37556881 0.05941835 0.8778159 4278190080
0.37784386 0.059423514 0.8778922 4278190080
0.38011929 0.059428681 0.87796855 4278190080
0.38239971 0.059434555 0.87805533 4278190080
0.38542572 0.059555579 0.87984324 4278190080
0.38770628 0.059560675 0.87991852 4278190080
0.38999277 0.059566621 0.88000637 4278190080
0.39232117 0.059578862 0.88018721 4278190080
0.39475444 0.059606798 0.88059992 4278190080
0.39755017 0.059688836 0.88181192 4278190080
-0.43354857 0.055325221 0.78762448 4278190080
-0.43157291 0.055329863 0.78769052 4278190080
-0.42959693 0.055334501 0.78775656 4278190080
-0.42762065 0.055339143 0.78782266 4278190080
-0.42564401 0.055343781 0.78788871 4278190080
-0.42366701 0.055348422 0.78795475 4278190080
-0.42168972 0.055353064 0.78802085 4278190080
-0.41971207 0.05535771 0.78808695 4278190080
-0.41773412 0.055362351 0.78815305 4278190080
-0.41575584 0.055366997 0.78821921 4278190080
-0.4137772 0.055371646 0.78828537 4278190080
-0.41179821 0.055376288 0.78835148 4278190080
-0.40981895 0.05538094 0.7884177 4278190080
-0.40783933 0.05538559 0.78848386 4278190080
-0.40585935 0.055390235 0.78855002 4278190080
-0.40387908 0.055394888 0.78861624 4278190080
-0.40189847 0.055399537 0.78868246 4278190080
-0.39991751 0.05540419 0.78874868 4278190080
-0.39793622 0.055408843 0.7888149 4278190080
-0.39595461 0.055413492 0.78888112 4278190080
-0.39397267 0.055418149 0.7889474 4278190080
-0.39199039 0.055422805 0.78901368 4278190080
-0.39000776 0.055427462 0.78907996 4278190080
-0.38802481 0.055432115 0.78914624 4278190080
-0.38604152 0.055436771 0.78921252 4278190080
-0.38405791 0.055441432 0.78927886 4278190080
-0.38207391 0.055446085 0.78934509 4278190080
-0.38008964 0.055450741 0.78941143 4278190080
-0.37810501 0.055455402 0.78947777 4278190080
-0.37612006 0.055460062 0.78954411 4278190080
-0.37413481 0.055464726 0.78961051 4278190080
-0.37214917 0.055469386 0.78967685 4278190080
-0.3701632 0.05547405 0.78974324 4278190080
-0.36817694 0.055478714 0.78980964 4278190080
-0.36619031 0.055483378 0.78987604 4278190080
-0.36420336 0.055488046 0.7899425 4278190080
-0.36221611 0.055492721 0.79000902 4278190080
-0.36022848 0.055497386 0.79007542 4278190080
-0.35824057 0.055502061 0.790142 4278190080
-0.35625228 0.055506729 0.79020846 4278190080
-0.35426366 0.0555114 0.79027498 4278190080
-0.35227472 0.055516075 0.7903415 4278190080
-0.35028544 0.055520747 0.79040802 4278190080
-0.34829584 0.055525422 0.79047459 4278190080
-0.34630588 0.055530097 0.79054111 4278190080
-0.34431556 0.055534769 0.79060763 4278190080
-0.34232497 0.055539448 0.79067427 4278190080
-0.34033397 0.055544123 0.79074079 4278190080
-0.3383427 0.055548802 0.79080743 4278190080
-0.33635107 0.055553481 0.790874 4278190080
-0.33435911 0.05555816 0.79094064 4278190080
-0.33236682 0.055562843 0.79100728 4278190080
-0.33037418 0.055567522 0.79107392 4278190080
-0.32838121 0.055572208 0.79114062 4278190080
-0.32638791 0.055576887 0.79120725 4278190080
-0.32439426 0.05558157 0.79127389 4278190080
-0.3224003 0.055586256 0.79134065 4278190080
-0.32040596 0.055590939 0.79140729 4278190080
-0.31841129 0.055595625 0.79147398 4278190080
-0.31641632 0.055600312 0.79154074 4278190080
-0.314421 0.055604998 0.79160744 4278190080
-0.31242535 0.055609692 0.79167426 4278190080
-0.31042933 0.055614378 0.79174095 4278190080
-0.308433 0.055619065 0.79180771 4278190080
-0.30643636 0.055623759 0.79187453 4278190080
-0.30443934 0.055628449 0.79194129 4278190080
-0.30244198 0.055633143 0.7920081 4278190080
-0.3004443 0.055637836 0.79207492 4278190080
-0.29844627 0.055642523 0.79214168 4278190080
-0.29644793 0.05564722 0.79220855 4278190080
-0.29444924 0.055651914 0.79227537 4278190080
-0.29245019 0.055656612 0.79234225 4278190080
-0.29045084 0.05566131 0.79240912 4278190080
-0.28845114 0.055666007 0.792476 4278190080
-0.2864511 0.055670708 0.79254293 4278190080
-0.28445071 0.055675406 0.79260981 4278190080
-0.28244999 0.055680104 0.79267669 4278190080
-0.28044894 0.055684809 0.79274362 4278190080
-0.27844754 0.05568951 0.79281056 4278190080
-0.27696347 0.055798505 0.79436225 4278190080
-0.27647185 0.056110524 0.79880422 4278190080
-0.27597466 0.056426045 0.80329609 4278190080
-0.27547187 0.056745138 0.8078388 4278190080
-0.27496329 0.057067856 0.81243306 4278190080
-0.2744489 0.057394259 0.81707984 4278190080
-0.27392858 0.057724416 0.82178003 4278190080
-0.27340224 0.058058389 0.82653457 4278190080
-0.2728698 0.058396257 0.83134454 4278190080
-0.27233109 0.058738079 0.83621079 4278190080
-0.27178606 0.059083924 0.84113437 4278190080
-0.27123457 0.059433866 0.84611624 4278190080
-0.27067649 0.059787981 0.85115749 4278190080
0.18183996 0.06135704 0.87349504 4278190080
0.18376532 0.061255109 0.87204391 4278190080
0.18594608 0.061239727 0.87182492 4278190080
0.18818927 0.061245028 0.87190038 4278190080
0.19043274 0.061250299 0.87197542 4278190080
0.19267659 0.061255567 0.8720504 4278190080
0.19492085 0.061260842 0.87212551 4278190080
0.19716543 0.061266094 0.87220031 4278190080
0.19941047 0.061271373 0.87227547 4278190080
0.20165586 0.061276644 0.87235051 4278190080
0.20390168 0.061281927 0.87242568 4278190080
0.20614785 0.061287202 0.87250078 4278190080
0.20839444 0.061292481 0.87257594 4278190080
0.21064121 0.061297704 0.87265033 4278190080
0.21288854 0.061302982 0.87272543 4278190080
0.21513629 0.061308268 0.87280071 4278190080
0.2173844 0.061313547 0.87287587 4278190080
0.21963294 0.061318841 0.87295121 4278190080
0.22188185 0.061324127 0.87302649 4278190080
0.22369324 0.061209593 0.87139595 4278190080
0.22593848 0.061214861 0.87147093 4278190080
0.22818413 0.061220132 0.87154597 4278190080
0.23043014 0.061225399 0.87162095 4278190080
0.23267654 0.061230667 0.87169594 4278190080
0.23492333 0.061235942 0.87177104 4278190080
0.23717052 0.061241213 0.87184608 4278190080
0.23941807 0.061246485 0.87192112 4278190080
0.24166617 0.061251793 0.8719967 4278190080
0.24391435 0.061257031 0.87207127 4278190080
0.2461624 0.061262134 0.87214392 4278190080
0.2484114 0.061267383 0.87221867 4278190080
0.25066093 0.06127267 0.87229389 4278190080
0.25291103 0.061278 0.87236983 4278190080
0.25516176 0.061283395 0.8724466 4278190080
0.25742677 0.061292086 0.87257034 4278190080
0.25970739 0.061304316 0.87274444 4278190080
0.26198506 0.061315648 0.87290579 4278190080
0.26426035 0.061326243 0.87305659 4278190080
0.26653567 0.061336663 0.87320495 4278190080
0.26880455 0.061345439 0.87332988 4278190080
0.27107412 0.061354224 0.87345493 4278190080
0.27333942 0.061361909 0.87356436 4278190080
0.27560243 0.061368961 0.87366474 4278190080
0.277861 0.061374918 0.87374955 4278190080
0.28011358 0.06137947 0.87381434 4278190080
0.28236654 0.06138403 0.87387925 4278190080
0.28461802 0.061388198 0.87393862 4278190080
0.28686386 0.061391097 0.87397987 4278190080
0.28910661 0.061393294 0.87401116 4278190080
0.29134655 0.06139487 0.87403357 4278190080
0.29358605 0.061396323 0.87405425 4278190080
0.29582563 0.061397776 0.87407494 4278190080
0.29806533 0.061399229 0.87409562 4278190080
0.3003051 0.061400671 0.87411618 4278190080
0.30254501 0.061402123 0.87413687 4278190080
0.30478504 0.061403576 0.87415755 4278190080
0.3070277 0.06140554 0.8741855 4278190080
0.30928552 0.061410483 0.87425584 4278190080
0.31154558 0.061415795 0.87433147 4278190080
0.313806 0.061421104 0.87440705 4278190080
0.3160668 0.061426409 0.87448257 4278190080
0.31832802 0.061431725 0.87455827 4278190080
0.3205896 0.061437033 0.87463385 4278190080
0.32285163 0.061442353 0.87470955 4278190080
0.32511404 0.061447673 0.8747853 4278190080
0.32737684 0.061452989 0.874861 4278190080
0.32964009 0.061458319 0.87493688 4278190080
0.33190364 0.061463639 0.87501258 4278190080
0.33416766 0.061468966 0.87508845 4278190080
0.33643207 0.061474297 0.87516433 4278190080
0.33869681 0.061479617 0.87524009 4278190080
0.34096202 0.061484952 0.87531602 4278190080
0.34322757 0.061490279 0.87539184 4278190080
0.3454935 0.06149561 0.87546772 4278190080
0.34775984 0.061500937 0.87554359 4278190080
0.35002661 0.061506271 0.87561953 4278190080
0.35229373 0.061511606 0.87569547 4278190080
0.35456124 0.061516937 0.87577134 4278190080
0.3568292 0.061522275 0.87584734 4278190080
0.35909748 0.061527606 0.87592328 4278190080
0.36136621 0.061532944 0.87599927 4278190080
0.3636353 0.061538283 0.87607527 4278190080
0.36590481 0.061543621 0.87615126 4278190080
0.3681747 0.061548959 0.87622726 4278190080
0.37044495 0.061554298 0.87630326 4278190080
0.37271565 0.06155964 0.87637931 4278190080
0.37498668 0.061564978 0.87645531 4278190080
0.37725818 0.061570324 0.87653142 4278190080
0.37953004 0.061575674 0.87660754 4278190080
0.38180229 0.061581016 0.87668359 4278190080
0.38407496 0.061586361 0.87675971 4278190080
0.38634795 0.061591703 0.87683576 4278190080
0.38862142 0.061597053 0.87691194 4278190080
0.39166176 0.061723199 0.87870777 4278190080
0.39394033 0.061728541 0.87878382 4278190080
0.39621875 0.061733801 0.87885869 4278190080
0.39852244 0.061742909 0.87898839 4278190080
0.40087968 0.061760176 0.87923419 4278190080
0.40339264 0.061801098 0.87981677 4278190080
-0.43289933 0.057251189 0.78644502 4278190080
-0.43092659 0.057255983 0.78651088 4278190080
-0.42895353 0.057260778 0.78657675 4278190080
-0.42698014 0.057265572 0.78664261 4278190080
-0.42500639 0.057270367 0.78670847 4278190080
-0.42303231 0.057275161 0.78677434 4278190080
-0.42105794 0.057279959 0.78684026 4278190080
-0.41908324 0.057284757 0.78690618 4278190080
-0.41710818 0.057289556 0.78697211 4278190080
-0.41513279 0.057294358 0.78703803 4278190080
-0.41315708 0.057299156 0.78710395 4278190080
-0.41118103 0.057303958 0.78716993 4278190080
-0.40920466 0.057308763 0.78723592 4278190080
-0.40722796 0.057313565 0.7873019 4278190080
-0.40525094 0.057318367 0.78736788 4278190080
-0.40327355 0.057323173 0.78743386 4278190080
-0.40129587 0.057327978 0.7874999 4278190080
-0.39931777 0.05733278 0.78756583 4278190080
-0.3973394 0.057337586 0.78763187 4278190080
-0.39536071 0.057342395 0.78769791 4278190080
-0.39338169 0.057347201 0.78776395 4278190080
-0.39140233 0.057352014 0.78783005 4278190080
-0.38942263 0.057356823 0.7878961 4278190080
-0.38744262 0.057361633 0.7879622 4278190080
-0.38546225 0.057366446 0.7880283 4278190080
-0.38348156 0.057371259 0.7880944 4278190080
-0.38150057 0.057376076 0.78816056 4278190080
-0.37951919 0.057380885 0.78822666 4278190080
-0.37753752 0.057385702 0.78829283 4278190080
-0.37555549 0.057390518 0.78835899 4278190080
-0.37357315 0.057395335 0.78842515 4278190080
-0.37159047 0.057400152 0.78849131 4278190080
-0.36960745 0.057404973 0.78855753 4278190080
-0.3676241 0.057409793 0.78862375 4278190080
-0.3656404 0.05741461 0.78868991 4278190080
-0.3636564 0.05741943 0.78875613 4278190080
-0.36167207 0.057424255 0.78882241 4278190080
-0.35968739 0.057429079 0.78888869 4278190080
-0.3577024 0.057433907 0.78895497 4278190080
-0.35571706 0.057438731 0.78902125 4278190080
-0.35373139 0.057443559 0.78908759 4278190080
-0.35174537 0.057448383 0.78915387 4278190080
-0.34975907 0.057453219 0.78922027 4278190080
-0.34777236 0.057458043 0.78928655 4278190080
-0.34578535 0.057462871 0.78935289 4278190080
-0.34379804 0.057467707 0.78941929 4278190080
-0.34181035 0.057472534 0.78948563 4278190080
-0.33982238 0.057477374 0.78955209 4278190080
-0.337834 0.057482202 0.78961843 4278190080
-0.33584532 0.057487037 0.78968483 4278190080
-0.33385631 0.057491876 0.78975129 4278190080
-0.33186698 0.057496708 0.78981769 4278190080
-0.32987726 0.057501543 0.78988409 4278190080
-0.3278873 0.057506386 0.78995061 4278190080
-0.32589692 0.057511218 0.79001701 4278190080
-0.32390624 0.057516061 0.79008353 4278190080
-0.32191524 0.057520904 0.79015005 4278190080
-0.31992385 0.057525743 0.79021651 4278190080
-0.31793219 0.057530586 0.79028302 4278190080
-0.31594014 0.057535425 0.79034954 4278190080
-0.3139478 0.057540271 0.79041612 4278190080
-0.31195509 0.057545114 0.79048264 4278190080
-0.30996206 0.057549957 0.79054916 4278190080
-0.30796868 0.057554804 0.79061574 4278190080
-0.30597499 0.05755965 0.79068232 4278190080
-0.30398092 0.057564493 0.79074883 4278190080
-0.30198658 0.057569344 0.79081547 4278190080
-0.29999188 0.057574198 0.79088211 4278190080
-0.29799682 0.057579048 0.79094875 4278190080
-0.2960014 0.057583895 0.79101533 4278190080
-0.29400569 0.057588745 0.79108196 4278190080
-0.29200965 0.057593599 0.79114866 4278190080
-0.29001325 0.057598453 0.7912153 4278190080
-0.28801653 0.057603307 0.791282 4278190080
-0.28601947 0.057608161 0.7913487 4278190080
-0.28402203 0.057613011 0.79141533 4278190080
-0.28202432 0.057617873 0.79148209 4278190080
-0.28002623 0.057622727 0.79154879 4278190080
-0.27802786 0.057627592 0.79161561 4278190080
-0.27736884 0.057912175 0.79552484 4278190080
-0.27687874 0.058236491 0.79997987 4278190080
-0.27638313 0.058564458 0.80448508 4278190080
-0.27588189 0.058896136 0.80904126 4278190080
-0.27537492 0.059231583 0.81364924 4278190080
-0.27486211 0.059570875 0.81830996 4278190080
-0.27434337 0.059914067 0.82302433 4278190080
-0.27381861 0.060261242 0.82779336 4278190080
-0.27328777 0.060612462 0.832618 4278190080
-0.27275068 0.060967799 0.8374992 4278190080
-0.27220729 0.061327331 0.84243798 4278190080
-0.27165741 0.061691124 0.8474353 4278190080
-0.271101 0.062059261 0.85249233 4278190080
0.18145293 0.06345287 0.87163591 4278190080
0.18344688 0.06337256 0.87053275 4278190080
0.18566048 0.063369147 0.87048584 4278190080
0.18790019 0.063374616 0.87056106 4278190080
0.19014017 0.063380055 0.87063575 4278190080
0.19238058 0.063385509 0.87071061 4278190080
0.19462132 0.063390948 0.87078536 4278190080
0.19686243 0.063396379 0.87085992 4278190080
0.19910403 0.063401841 0.87093496 4278190080
0.20134597 0.063407294 0.87100989 4278190080
0.20358828 0.063412741 0.87108475 4278190080
0.20583099 0.063418195 0.87115967 4278190080
0.20807427 0.063423708 0.87123537 4278190080
0.21031733 0.063429035 0.87130857 4278190080
0.21256122 0.063434497 0.87138361 4278190080
0.21480547 0.063439958 0.87145859 4278190080
0.21705012 0.063445419 0.87153363 4278190080
0.21929514 0.06345088 0.87160861 4278190080
0.22150478 0.06344609 0.87154287 4278190080
0.22334915 0.063337818 0.87005556 4278190080
0.22559093 0.063343264 0.87013036 4278190080
0.22783306 0.063348711 0.8702051 4278190080
0.2300756 0.063354149 0.87027985 4278190080
0.23231852 0.063359596 0.87035471 4278190080
0.23456182 0.063365042 0.87042946 4278190080
0.2368055 0.063370481 0.87050426 4278190080
0.23904957 0.063375928 0.87057906 4278190080
0.24129412 0.063381404 0.87065423 4278190080
0.24353905 0.06338688 0.87072945 4278190080
0.24578358 0.063392147 0.87080181 4278190080
0.24802886 0.063397512 0.87087554 4278190080
0.2502749 0.063402973 0.87095058 4278190080
0.25252137 0.063408449 0.87102574 4278190080
0.25479692 0.063421063 0.87119907 4278190080
0.2570751 0.063434109 0.8713783 4278190080
0.25935337 0.063446969 0.87155485 4278190080
0.26162794 0.063458696 0.87171596 4278190080
0.26390174 0.063470036 0.87187177 4278190080
0.26617581 0.063481264 0.87202597 4278190080
0.26844302 0.063490674 0.87215525 4278190080
0.27071089 0.063500084 0.87228453 4278190080
0.2729772 0.06350898 0.87240678 4278190080
0.27523413 0.063515574 0.87249726 4278190080
0.27749032 0.063521877 0.87258393 4278190080
0.27974698 0.063528195 0.87267071 4278190080
0.28199703 0.063532926 0.87273568 4278190080
0.28424171 0.063536383 0.87278318 4278190080
0.28648654 0.06353981 0.87283027 4278190080
0.28872529 0.063541859 0.87285835 4278190080
0.29096198 0.063543424 0.87287986 4278190080
0.2931985 0.063544922 0.87290049 4278190080
0.29543513 0.063546427 0.87292111 4278190080
0.29767185 0.063547924 0.87294173 4278190080
0.2999087 0.063549429 0.87296236 4278190080
0.30214563 0.063550927 0.87298292 4278190080
0.30438268 0.063552424 0.87300354 4278190080
0.30661982 0.063553929 0.87302417 4278190080
0.30885708 0.063555427 0.87304479 4278190080
0.31109443 0.063556932 0.87306541 4278190080
0.31333187 0.063558422 0.87308592 4278190080
0.31557906 0.063561857 0.87313312 4278190080
0.31783673 0.063567348 0.87320852 4278190080
0.32009482 0.063572839 0.87328392 4278190080
0.32235324 0.063578323 0.87335926 4278190080
0.32461214 0.063583821 0.87343478 4278190080
0.32687137 0.063589305 0.87351018 4278190080
0.32913098 0.063594796 0.87358558 4278190080
0.33139101 0.063600294 0.8736611 4278190080
0.33365139 0.063605785 0.8737365 4278190080
0.33591217 0.063611276 0.87381196 4278190080
0.33817342 0.063616782 0.8738876 4278190080
0.340435 0.063622281 0.87396312 4278190080
0.34269705 0.063627794 0.87403882 4278190080
0.34495947 0.0636333 0.87411451 4278190080
0.34722224 0.063638806 0.87419009 4278190080
0.34948546 0.063644312 0.87426579 4278190080
0.351749 0.063649818 0.87434143 4278190080
0.354013 0.063655339 0.87441719 4278190080
0.35627735 0.063660845 0.87449282 4278190080
0.35854211 0.063666359 0.87456858 4278190080
0.3608073 0.063671879 0.8746444 4278190080
0.36307281 0.063677385 0.8747201 4278190080
0.36533877 0.063682906 0.87479591 4278190080
0.36760506 0.06368842 0.87487161 4278190080
0.3698718 0.063693933 0.87494743 4278190080
0.37213889 0.063699454 0.87502319 4278190080
0.37440643 0.063704975 0.87509906 4278190080
0.37667435 0.063710496 0.87517494 4278190080
0.37894261 0.063716017 0.8752507 4278190080
0.38121131 0.063721538 0.87532657 4278190080
0.38348037 0.063727058 0.87540239 4278190080
0.38574985 0.063732587 0.87547833 4278190080
0.38801974 0.063738115 0.87555426 4278190080
0.39028999 0.063743636 0.87563014 4278190080
0.39256063 0.063749164 0.87570608 4278190080
0.39483166 0.063754685 0.87578195 4278190080
0.39710313 0.063760221 0.87585795 4278190080
0.40015817 0.0638908 0.87765169 4278190080
0.40243438 0.063896269 0.87772679 4278190080
0.4047108 0.0639017 0.87780148 4278190080
0.40703234 0.063914172 0.87797272 4278190080
0.40943891 0.063939773 0.87832445 4278190080
0.41205403 0.063997492 0.87911731 4278190080
-0.4342216 0.05916645 0.78520352 4278190080
-0.43225205 0.059171397 0.78526914 4278190080
-0.43028224 0.059176344 0.78533483 4278190080
-0.42831209 0.059181295 0.78540051 4278190080
-0.42634156 0.059186239 0.78546613 4278190080
-0.42437074 0.05919119 0.78553182 4278190080
-0.42239958 0.059196137 0.7855975 4278190080
-0.4204281 0.059201092 0.78566325 4278190080
-0.41845623 0.059206039 0.78572887 4278190080
-0.41648409 0.05921099 0.78579462 4278190080
-0.41451162 0.059215944 0.78586036 4278190080
-0.4125388 0.059220899 0.7859261 4278190080
-0.41056567 0.059225854 0.78599185 4278190080
-0.40859216 0.059230808 0.78605759 4278190080
-0.40661839 0.059235767 0.78612339 4278190080
-0.40464428 0.059240725 0.7861892 4278190080
-0.40266982 0.059245683 0.786255 4278190080
-0.40069503 0.059250642 0.78632081 4278190080
-0.39871988 0.0592556 0.78638661 4278190080
-0.39674443 0.059260562 0.78645247 4278190080
-0.39476866 0.059265524 0.78651834 4278190080
-0.39279252 0.059270483 0.78658414 4278190080
-0.39081612 0.059275452 0.78665006 4278190080
-0.38883933 0.059280414 0.78671592 4278190080
-0.38686219 0.059285376 0.78678179 4278190080
-0.38488477 0.059290346 0.78684771 4278190080
-0.382907 0.059295312 0.78691363 4278190080
-0.3809289 0.059300277 0.78697956 4278190080
-0.37895048 0.059305247 0.78704548 4278190080
-0.37697166 0.059310209 0.78711134 4278190080
-0.37499258 0.059315182 0.78717732 4278190080
-0.37301317 0.059320152 0.78724331 4278190080
-0.3710334 0.059325125 0.78730929 4278190080
-0.3690533 0.059330098 0.78737527 4278190080
-0.36707288 0.059335068 0.78744125 4278190080
-0.36509213 0.059340045 0.7875073 4278190080
-0.36311105 0.059345018 0.78757328 4278190080
-0.36112961 0.059349991 0.78763932 4278190080
-0.35914791 0.05935498 0.78770548 4278190080
-0.35716584 0.059359957 0.78777152 4278190080
-0.35518345 0.059364941 0.78783768 4278190080
-0.3532007 0.059369918 0.78790373 4278190080
-0.35121763 0.059374902 0.78796989 4278190080
-0.34923422 0.059379883 0.78803599 4278190080
-0.34725049 0.059384868 0.78810215 4278190080
-0.34526643 0.059389852 0.78816831 4278190080
-0.34328204 0.05939484 0.78823447 4278190080
-0.3412973 0.059399825 0.78830063 4278190080
-0.33931226 0.059404813 0.78836685 4278190080
-0.33732682 0.059409801 0.78843302 4278190080
-0.3353411 0.059414789 0.78849924 4278190080
-0.33335504 0.059419781 0.78856546 4278190080
-0.33136863 0.059424769 0.78863168 4278190080
-0.32938191 0.059429765 0.78869796 4278190080
-0.32739481 0.059434753 0.78876418 4278190080
-0.32540745 0.059439749 0.78883046 4278190080
-0.32341969 0.05944474 0.78889674 4278190080
-0.32143161 0.059449732 0.78896296 4278190080
-0.31944323 0.059454732 0.7890293 4278190080
-0.31745446 0.059459724 0.78909558 4278190080
-0.31546539 0.059464723 0.78916192 4278190080
-0.313476 0.059469722 0.78922826 4278190080
-0.31148624 0.059474722 0.7892946 4278190080
-0.30949619 0.059479725 0.789361 4278190080
-0.30750579 0.059484724 0.78942734 4278190080
-0.30551502 0.059489723 0.78949368 4278190080
-0.30352393 0.059494726 0.78956008 4278190080
-0.30153254 0.059499729 0.78962648 4278190080
-0.29954079 0.059504736 0.78969294 4278190080
-0.29754871 0.059509739 0.78975934 4278190080
-0.29555628 0.059514742 0.78982574 4278190080
-0.29356351 0.059519753 0.7898922 4278190080
-0.29157043 0.05952476 0.78995866 4278190080
-0.28957701 0.059529766 0.79002512 4278190080
-0.28758323 0.059534773 0.79009157 4278190080
-0.28558913 0.059539784 0.79015803 4278190080
-0.28359473 0.059544798 0.79022461 4278190080
-0.28159994 0.059549809 0.79029107 4278190080
-0.27960482 0.059554819 0.79035759 4278190080
-0.2782585 0.0596991 0.79227233 4278190080
-0.27777538 0.06003204 0.79669082 4278190080
-0.27728683 0.06036872 0.80115896 4278190080
-0.27679282 0.060709205 0.80567753 4278190080
-0.27629313 0.061053541 0.81024724 4278190080
-0.27578771 0.061401792 0.81486893 4278190080
-0.27527648 0.06175404 0.81954366 4278190080
-0.27475935 0.062110353 0.82427233 4278190080
-0.27423623 0.062470805 0.82905591 4278190080
-0.273707 0.062835462 0.83389527 4278190080
-0.27317154 0.0632044 0.83879149 4278190080
-0.2726298 0.063577704 0.84374565 4278190080
-0.27208161 0.063955434 0.84875858 4278190080
-0.27152684 0.064337686 0.85383147 4278190080
0.18109162 0.065548502 0.86990029 4278190080
0.18315224 0.065490805 0.8691346 4278190080
0.18537578 0.065492041 0.869151 4278190080
0.18761198 0.065497674 0.86922574 4278190080
0.18984851 0.065503284 0.86930025 4278190080
0.19208543 0.065508902 0.86937481 4278190080
0.19432272 0.06551452 0.86944932 4278190080
0.19656035 0.065520123 0.86952364 4278190080
0.19879854 0.065525778 0.86959869 4278190080
0.201037 0.065531403 0.86967337 4278190080
0.20327586 0.065537028 0.869748 4278190080
0.2055151 0.065542653 0.86982268 4278190080
0.20775457 0.065548234 0.86989671 4278190080
0.20999448 0.065553829 0.86997104 4278190080
0.21223488 0.065559469 0.87004584 4278190080
0.21447568 0.065565102 0.87012064 4278190080
0.21671684 0.065570734 0.87019539 4278190080
0.21895841 0.065576375 0.87027025 4278190080
0.22092637 0.065500781 0.86926705 4278190080
0.22300614 0.065459512 0.86871934 4278190080
0.22524442 0.06546513 0.86879385 4278190080
0.22748309 0.06547074 0.86886835 4278190080
0.22972213 0.065476358 0.86894286 4278190080
0.23196159 0.065481976 0.86901748 4278190080
0.23420142 0.065487601 0.86909205 4278190080
0.23644161 0.065493219 0.86916661 4278190080
0.23868221 0.065498836 0.86924124 4278190080
0.24092321 0.065504469 0.86931592 4278190080
0.24316485 0.065510169 0.86939156 4278190080
0.24540599 0.065515622 0.86946398 4278190080
0.24764754 0.065521099 0.86953664 4278190080
0.24989007 0.065526731 0.86961138 4278190080
0.25216186 0.065539867 0.86978573 4278190080
0.25444281 0.06555514 0.86998838 4278190080
0.25671974 0.06556911 0.87017381 4278190080
0.25899577 0.065582618 0.8703531 4278190080
0.26127094 0.065595679 0.87052643 4278190080
0.26354569 0.065608419 0.87069553 4278190080
0.26581666 0.065620013 0.87084937 4278190080
0.2680808 0.065629736 0.87097842 4278190080
0.2703473 0.065639883 0.871113 4278190080
0.27261311 0.065649688 0.87124318 4278190080
0.2748718 0.065657638 0.87134862 4278190080
0.27712545 0.065664262 0.8714366 4278190080
0.27937922 0.065670811 0.8715235 4278190080
0.2816267 0.065675795 0.8715896 4278190080
0.28386807 0.065679274 0.87163585 4278190080
0.28610969 0.065682769 0.87168217 4278190080
0.28834498 0.065684766 0.87170869 4278190080
0.29057845 0.065686323 0.87172931 4278190080
0.29281202 0.065687865 0.87174982 4278190080
0.29504567 0.065689415 0.87177038 4278190080
0.29727945 0.065690964 0.87179095 4278190080
0.29951334 0.065692514 0.87181151 4278190080
0.30174732 0.065694064 0.87183207 4278190080
0.30398136 0.065695606 0.87185258 4278190080
0.30621555 0.065697156 0.87187314 4278190080
0.30844986 0.065698706 0.8718937 4278190080
0.31068426 0.065700255 0.87191427 4278190080
0.31291875 0.065701805 0.87193477 4278190080
0.31515336 0.065703355 0.87195534 4278190080
0.31738809 0.065704904 0.8719759 4278190080
0.3196229 0.065706454 0.87199646 4278190080
0.32185897 0.065708235 0.87202013 4278190080
0.32411179 0.065713383 0.87208849 4278190080
0.32636747 0.065719046 0.87216365 4278190080
0.32862356 0.065724716 0.87223881 4278190080
0.33088008 0.065730385 0.8723141 4278190080
0.33313695 0.065736055 0.87238932 4278190080
0.3353942 0.065741718 0.87246454 4278190080
0.33765188 0.065747395 0.87253988 4278190080
0.33990991 0.065753065 0.8726151 4278190080
0.34216836 0.065758735 0.87269038 4278190080
0.3444272 0.065764412 0.87276572 4278190080
0.34668639 0.06577009 0.872841 4278190080
0.34894601 0.065775767 0.87291634 4278190080
0.35120603 0.065781444 0.87299174 4278190080
0.35346642 0.065787129 0.87306714 4278190080
0.35572726 0.065792814 0.8731426 4278190080
0.35798848 0.065798506 0.87321812 4278190080
0.36025006 0.065804191 0.87329358 4278190080
0.36251208 0.065809883 0.87336916 4278190080
0.36477444 0.065815568 0.87344462 4278190080
0.36703724 0.065821268 0.8735202 4278190080
0.36930043 0.06582696 0.87359577 4278190080
0.37156394 0.065832652 0.87367129 4278190080
0.37382793 0.065838352 0.87374693 4278190080
0.37609223 0.065844044 0.87382245 4278190080
0.37835702 0.065849744 0.87389815 4278190080
0.38062209 0.065855436 0.87397367 4278190080
0.38288766 0.065861143 0.87404937 4278190080
0.38515359 0.065866843 0.87412506 4278190080
0.38741985 0.065872543 0.87420064 4278190080
0.38968658 0.06587825 0.8742764 4278190080
0.39195365 0.065883949 0.87435204 4278190080
0.39422113 0.065889649 0.87442774 4278190080
0.39648899 0.065895356 0.87450343 4278190080
0.39875728 0.065901063 0.87457919 4278190080
0.40102595 0.065906771 0.87465495 4278190080
0.40329498 0.065912478 0.87473065 4278190080
0.40559426 0.065923035 0.87487078 4278190080
0.40863398 0.06605316 0.8765977 4278190080
0.41090801 0.066058777 0.87667227 4278190080
0.41319767 0.066066831 0.87677914 4278190080
0.41552609 0.066080965 0.87696671 4278190080
0.41798705 0.066115916 0.8774305 4278190080
-0.43553963 0.061075676 0.78396589 4278190080
-0.43357337 0.061080772 0.78403133 4278190080
-0.43160674 0.061085872 0.78409678 4278190080
-0.42963979 0.061090972 0.78416222 4278190080
-0.42767248 0.061096068 0.78422767 4278190080
-0.4257049 0.061101172 0.78429317 4278190080
-0.42373693 0.061106272 0.78435862 4278190080
-0.42176867 0.061111376 0.78442413 4278190080
-0.41980007 0.061116479 0.78448963 4278190080
-0.41783112 0.061121579 0.78455514 4278190080
-0.4158619 0.06112669 0.7846207 4278190080
-0.4138923 0.06113179 0.78468621 4278190080
-0.4119224 0.061136901 0.78475177 4278190080
-0.40995216 0.061142009 0.78481734 4278190080
-0.40798157 0.061147116 0.7848829 4278190080
-0.40601069 0.061152227 0.78494853 4278190080
-0.40403944 0.061157335 0.78501409 4278190080
-0.4020679 0.061162449 0.78507972 4278190080
-0.40009603 0.061167561 0.78514534 4278190080
-0.3981238 0.061172675 0.78521097 4278190080
-0.39615124 0.061177786 0.78527659 4278190080
-0.39417833 0.061182894 0.78534216 4278190080
-0.39220512 0.061188012 0.78540784 4278190080
-0.39023158 0.061193127 0.78547353 4278190080
-0.38825771 0.061198246 0.78553921 4278190080
-0.38628352 0.061203364 0.78560489 4278190080
-0.38430899 0.061208479 0.78567058 4278190080
-0.38233414 0.061213601 0.78573632 4278190080
-0.38035893 0.06121872 0.78580201 4278190080
-0.3783834 0.061223842 0.78586775 4278190080
-0.37640756 0.061228964 0.78593349 4278190080
-0.3744314 0.06123409 0.7859993 4278190080
-0.37245488 0.061239213 0.78606504 4278190080
-0.37047803 0.061244339 0.78613085 4278190080
-0.36850089 0.061249465 0.78619665 4278190080
-0.36652339 0.061254591 0.78626245 4278190080
-0.36454552 0.061259717 0.78632826 4278190080
-0.36256737 0.061264843 0.78639406 4278190080
-0.36058888 0.061269976 0.78645992 4278190080
-0.35861003 0.061275106 0.78652579 4278190080
-0.35663092 0.061280243 0.78659171 4278190080
-0.35465142 0.061285373 0.78665757 4278190080
-0.35267159 0.061290503 0.78672343 4278190080
-0.35069147 0.061295643 0.78678942 4278190080
-0.34871098 0.061300781 0.78685534 4278190080
-0.3467302 0.061305922 0.78692132 4278190080
-0.34474906 0.061311055 0.78698725 4278190080
-0.34276757 0.061316192 0.78705317 4278190080
-0.3407858 0.061321337 0.78711921 4278190080
-0.33880362 0.061326474 0.78718513 4278190080
-0.33682117 0.061331619 0.78725117 4278190080
-0.33483836 0.061336759 0.78731716 4278190080
-0.33285525 0.061341904 0.7873832 4278190080
-0.33087179 0.061347049 0.78744924 4278190080
-0.328888 0.061352193 0.78751528 4278190080
-0.32690382 0.061357334 0.78758126 4278190080
-0.3249194 0.06136249 0.78764743 4278190080
-0.3229346 0.061367635 0.78771347 4278190080
-0.32094947 0.061372783 0.78777957 4278190080
-0.318964 0.061377935 0.78784567 4278190080
-0.31697819 0.06138308 0.78791171 4278190080
-0.31499207 0.061388232 0.78797787 4278190080
-0.3130056 0.061393384 0.78804398 4278190080
-0.31101885 0.06139854 0.7881102 4278190080
-0.3090317 0.061403692 0.7881763 4278190080
-0.30704424 0.061408844 0.78824246 4278190080
-0.30505645 0.061414003 0.78830868 4278190080
-0.30306831 0.061419159 0.78837484 4278190080
-0.30107984 0.061424319 0.78844106 4278190080
-0.29909107 0.061429478 0.78850728 4278190080
-0.29710191 0.06143463 0.78857344 4278190080
-0.29511246 0.061439794 0.78863972 4278190080
-0.29312265 0.061444953 0.78870595 4278190080
-0.29113251 0.061450113 0.78877217 4278190080
-0.28914207 0.06145528 0.78883851 4278190080
-0.28715125 0.061460439 0.78890473 4278190080
-0.28516012 0.06146561 0.78897107 4278190080
-0.28316864 0.061470773 0.78903735 4278190080
-0.28117684 0.061475936 0.78910363 4278190080
-0.2791847 0.061481103 0.78916997 4278190080
-0.27866471 0.061812896 0.79342884 4278190080
-0.2781831 0.06215813 0.79786026 4278190080
-0.27769616 0.062507249 0.80234158 4278190080
-0.27720368 0.062860318 0.8068735 4278190080
-0.27670562 0.063217387 0.81145686 4278190080
-0.27620178 0.063578524 0.81609237 4278190080
-0.27569216 0.063943811 0.82078123 4278190080
-0.27517667 0.064313322 0.82552421 4278190080
-0.27465516 0.064687125 0.83032238 4278190080
-0.27412757 0.065065295 0.83517659 4278190080
-0.27359378 0.065447919 0.84008795 4278190080
-0.27305365 0.065835066 0.84505737 4278190080
-0.2725071 0.066226825 0.85008591 4278190080
-0.271954 0.066623271 0.85517472 4278190080
0.17896399 0.067806236 0.87035918 4278190080
0.18074507 0.067640796 0.86823559 4278190080
0.1828595 0.067602597 0.86774534 4278190080
0.18509194 0.067608431 0.8678202 4278190080
0.18732464 0.06761422 0.86789447 4278190080
0.18955772 0.067620002 0.86796874 4278190080
0.19179121 0.067625798 0.86804312 4278190080
0.19402504 0.067631587 0.86811739 4278190080
0.19625914 0.067637332 0.86819118 4278190080
0.19849399 0.067643203 0.86826652 4278190080
0.200729 0.067648999 0.86834091 4278190080
0.2029644 0.067654796 0.86841536 4278190080
0.20520039 0.067660667 0.8684907 4278190080
0.20743608 0.067666315 0.86856318 4278190080
0.20967263 0.067672119 0.86863768 4278190080
0.21190959 0.06767793 0.86871231 4278190080
0.2141469 0.067683734 0.86878675 4278190080
0.21638462 0.067689545 0.86886138 4278190080
0.21862271 0.067695357 0.868936 4278190080
0.22045177 0.067575671 0.86739963 4278190080
0.22266415 0.067574695 0.86738712 4278190080
0.22489896 0.067580476 0.86746138 4278190080
0.22713417 0.067586266 0.86753565 4278190080
0.22936977 0.067592062 0.86761004 4278190080
0.23160575 0.067597851 0.86768436 4278190080
0.2338421 0.06760364 0.86775869 4278190080
0.23607884 0.067609437 0.86783308 4278190080
0.23831597 0.067615233 0.86790746 4278190080
0.24055347 0.067621022 0.86798179 4278190080
0.24279162 0.067626894 0.86805713 4278190080
0.24502952 0.067632586 0.86813021 4278190080
0.24726747 0.067638189 0.86820215 4278190080
0.249532 0.067650899 0.86836529 4278190080
0.25180879 0.06766668 0.86856788 4278190080
0.2540859 0.067682266 0.86876798 4278190080
0.2563642 0.067697905 0.86896867 4278190080
0.2586385 0.067712225 0.86915249 4278190080
0.2609103 0.067725651 0.8693248 4278190080
0.26318195 0.067738816 0.86949378 4278190080
0.26545668 0.06775254 0.86966997 4278190080
0.26772389 0.067764141 0.86981887 4278190080
0.26998815 0.06777481 0.86995578 4278190080
0.27224866 0.067784362 0.87007844 4278190080
0.27450514 0.067792766 0.87018633 4278190080
0.27676219 0.067801178 0.87029427 4278190080
0.27901137 0.06780754 0.87037599 4278190080
0.28125706 0.067812964 0.87044561 4278190080
0.2834962 0.067816734 0.87049401 4278190080
0.28573358 0.067820035 0.87053633 4278190080
0.28796545 0.067821972 0.87056124 4278190080
0.29019594 0.067823574 0.87058175 4278190080
0.29242653 0.067825161 0.87060213 4278190080
0.29465726 0.067826763 0.87062269 4278190080
0.29688808 0.067828357 0.8706432 4278190080
0.299119 0.067829959 0.8706637 4278190080
0.30135003 0.067831554 0.87068421 4278190080
