# .PCD v0.7 - Point Cloud Data file format
VERSION 0.7
FIELDS x y z
SIZE 4 4 4
TYPE F F F
COUNT 1 1 1
WIDTH 1298
HEIGHT 1
VIEWPOINT 0 0 0 1 0 0 0
POINTS 1298
DATA ascii
-0.059999999 0.00089849212 0.040956631
0.059999999 0.00096810638 0.040833429
0.060000002 0.0011705625 0.040940285
-0.059999987 0.0030881076 0.041123122
0.059999999 0.0031581516 0.041085429
0.060000002 0.0031501753 0.04110346
-0.059999991 0.0052008061 0.040911976
0.059999995 0.0048720371 0.041046344
0.060000002 0.0041688569 0.040271908
-0.059999984 0.0068171117 0.041164283
0.059999991 0.006756532 0.040999305
-0.059999976 0.0089402078 0.041042738
0.059999987 0.0088887746 0.040965904
0.060000002 0.0088550821 0.040798228
-0.059999969 0.010978849 0.041019537
0.059999991 0.010983776 0.040956467
0.060000002 0.011151924 0.040812414
-0.059999991 0.012848812 0.04104523
0.059999991 0.012925076 0.041034039
0.060000002 0.013148797 0.040878557
-0.059999999 0.014878361 0.040949006
0.059999987 0.014991164 0.040920235
0.060000002 0.015128443 0.041016757
-0.059999973 0.016970398 0.040901948
0.059999999 0.017010953 0.040967297
0.060000002 0.017028367 0.041087531
-0.059999987 0.018807163 0.040991619
0.059999995 0.019169776 0.041192509
0.060000002 0.019369647 0.041434504
-0.059999987 0.020881053 0.041032042
0.059999999 0.021146417 0.041101106
0.060000002 0.020952974 0.041041743
-0.059999976 0.022831293 0.041133333
0.059999999 0.022919575 0.040847763
0.060000002 0.022961266 0.041152902
-0.059999976 0.025090145 0.041016035
0.059999999 0.024993161 0.040933996
0.060000002 0.02463623 0.040665176
-0.059999991 0.027141489 0.040986724
0.059999991 0.0270813 0.041051012
0.060000002 0.026684782 0.041076366
-0.059999973 0.029150151 0.041111685
0.059999999 0.028997952 0.041334562
0.060000002 0.029128928 0.04071999
-0.059999987 0.030964039 0.041143425
0.059999991 0.03109148 0.041153457
0.060000002 0.03093715 0.040917959
-0.059999976 0.033033513 0.040951755
0.059999995 0.033221949 0.0411072
0.060000002 0.033098321 0.040955886
-0.059999987 0.035108685 0.041038256
0.059999991 0.034991056 0.040972695
0.060000002 0.035109539 0.040933114
-0.059999995 0.037198018 0.040921066
0.059999999 0.036781769 0.040929679
0.060000002 0.037145335 0.041043714
-0.059999999 0.039132532 0.04090967
0.059999991 0.039044086 0.041167431
0.060000002 0.038817462 0.040872797
-0.05999998 0.040941335 0.04118729
0.059999999 0.04104051 0.041185357
0.060000002 0.040903877 0.041249685
-0.059999999 0.043055225 0.041053988
0.059999999 0.042904012 0.040949687
0.060000002 0.042771287 0.040577829
-0.059308626 0.04484487 0.041033093
-0.056771945 0.044999994 0.040985849
-0.054890379 0.044999994 0.040916745
-0.053033292 0.045000006 0.040862892
-0.05104642 0.045000009 0.041089859
-0.049013007 0.045000006 0.040871669
-0.047112238 0.045000013 0.040915586
-0.045194536 0.045000006 0.041352842
-0.043269586 0.045000009 0.041000158
-0.041031878 0.045000002 0.040895395
-0.039231718 0.045000009 0.041058876
-0.037083697 0.044999987 0.040895727
-0.03502601 0.045000009 0.041105315
-0.033095069 0.044999987 0.041066512
-0.030788336 0.045000002 0.041161481
-0.029026769 0.045000013 0.040929079
-0.026859686 0.045000006 0.040951964
-0.025012324 0.045000002 0.041064102
-0.022995537 0.044999998 0.041049637
-0.02100046 0.045000006 0.041034106
-0.018863836 0.045000009 0.040841036
-0.017091842 0.045000009 0.041057587
-0.014913545 0.045000009 0.040900551
-0.013216862 0.045000002 0.041013088
-0.010901567 0.045000002 0.041019116
-0.0090206079 0.045000009 0.041247174
-0.0068985862 0.045000002 0.04110425
-0.0051848255 0.044999998 0.041368488
-0.0030924839 0.045000009 0.040988453
-0.00096229702 0.045000009 0.041230544
0.00086305343 0.044999998 0.041036345
0.0030763904 0.045000006 0.041012179
0.0049707657 0.045000006 0.040825907
0.0069043743 0.045000002 0.041108634
0.0089789703 0.045000006 0.041235618
0.010817442 0.045000009 0.041036271
0.012994764 0.044999998 0.04100813
0.015019641 0.045000009 0.04090875
0.017024521 0.045000013 0.040929489
0.019046076 0.045000009 0.041084826
0.02080996 0.044999998 0.040867634
0.022919273 0.045000013 0.040880099
0.02493131 0.045000006 0.041070681
0.027030917 0.045000013 0.040763095
0.029099261 0.045000009 0.040744476
0.031070272 0.045000002 0.040996905
0.033146411 0.045000002 0.04096444
0.034936562 0.044999998 0.040995121
0.037151963 0.045000009 0.040902138
0.038775232 0.045000006 0.041026682
0.040769096 0.045000006 0.04096093
0.04298133 0.044999998 0.040987384
0.045261424 0.045000009 0.041100521
0.046808138 0.045000009 0.04105895
0.048866201 0.045000009 0.041147739
0.050934952 0.044999991 0.040860746
0.05294897 0.045000006 0.041006032
0.054977395 0.045000009 0.04083183
0.056975503 0.045000009 0.040903568
0.059265088 0.044861753 0.041076731
0.060000002 0.044603825 0.041313164
-0.059097748 -0.044836957 0.042985458
-0.056887444 -0.045000009 0.043161452
-0.054697823 -0.045000009 0.042989213
-0.052989159 -0.045000006 0.043071214
-0.050965991 -0.044999998 0.043078888
-0.048982903 -0.044999998 0.043105759
-0.046907846 -0.045000009 0.043206375
-0.045163125 -0.045000009 0.042849597
-0.043060154 -0.045000009 0.043099582
-0.041008167 -0.045000002 0.042951077
-0.039041918 -0.045000009 0.043187443
-0.03731871 -0.045000009 0.042812776
-0.035181072 -0.045000002 0.043089062
-0.033144027 -0.044999998 0.042978954
-0.031151198 -0.045000006 0.042866427
-0.029166369 -0.044999998 0.04314743
-0.0271136 -0.045000006 0.043039147
-0.025271179 -0.045000006 0.04312408
-0.022898156 -0.045000009 0.04302622
-0.021091176 -0.045000009 0.042872995
-0.019095326 -0.045000009 0.042947173
-0.017044945 -0.045000009 0.043179471
-0.015061294 -0.045000009 0.042850345
-0.012864206 -0.045000009 0.042827379
-0.010847464 -0.045000009 0.042686787
-0.0088414466 -0.045000009 0.043005258
-0.0069935648 -0.045000009 0.043088473
-0.0047001853 -0.045000006 0.042903677
-0.0031466354 -0.045000002 0.043007113
-0.0011007298 -0.045000009 0.043052197
0.0010135018 -0.045000009 0.043055966
0.0029376976 -0.044999994 0.043121964
0.0051010409 -0.045000009 0.042946484
0.0069731865 -0.045000009 0.04288961
0.0090821069 -0.045000009 0.043118343
0.011111484 -0.045000002 0.043066684
0.013097649 -0.044999998 0.043011192
0.01512671 -0.045000002 0.043144777
0.016865062 -0.045000009 0.043134328
0.018731218 -0.045000013 0.042953134
0.021032726 -0.045000013 0.042949595
0.022992084 -0.045000002 0.043001413
0.02502498 -0.044999998 0.042953577
0.027013704 -0.045000009 0.042879391
0.029148487 -0.045000006 0.043021418
0.030927559 -0.045000009 0.042823885
0.033171356 -0.044999998 0.043091867
0.035083853 -0.045000013 0.043148868
0.037303064 -0.045000009 0.042922024
0.038756777 -0.045000009 0.042954061
0.040997423 -0.045000002 0.043074645
0.042960763 -0.044999998 0.04283727
0.044880491 -0.045000006 0.042877365
0.046770785 -0.045000009 0.043019649
0.048861559 -0.044999994 0.04321111
0.050901614 -0.045000009 0.042910356
0.053110804 -0.045000002 0.043052718
0.055061094 -0.045000009 0.042953338
0.05718784 -0.045000009 0.042740103
0.059275322 -0.044762287 0.043094125
0.060000002 -0.044398747 0.042182364
-0.059999984 -0.042891379 0.043080285
0.059999999 -0.04279175 0.04299292
0.060000002 -0.043339118 0.043044038
-0.05999998 -0.040898085 0.043126445
0.059999991 -0.04096308 0.042852566
0.060000002 -0.04102692 0.0433309
-0.060000002 -0.039004747 0.043090023
0.059999984 -0.038960148 0.04314268
0.060000002 -0.038890719 0.042683154
-0.059999976 -0.037115697 0.043120719
0.059999991 -0.037266165 0.042961806
0.060000002 -0.036995169 0.042535629
-0.059999976 -0.034859434 0.043024067
0.059999999 -0.035228301 0.042950068
0.060000002 -0.034693439 0.042891014
-0.059999984 -0.033074893 0.043026969
0.059999999 -0.033241481 0.043010321
0.060000002 -0.032916244 0.043183327
-0.059999984 -0.030895265 0.043023001
0.059999995 -0.031152375 0.042945091
0.060000002 -0.030939866 0.043104328
-0.059999987 -0.029124482 0.043084014
0.059999984 -0.028970005 0.043067232
0.060000002 -0.028890073 0.043426789
-0.059999999 -0.026705842 0.043076985
0.059999984 -0.027203344 0.042791873
0.060000002 -0.02666836 0.043218169
-0.059999976 -0.024865737 0.042897932
0.059999999 -0.025050098 0.043344814
0.060000002 -0.024787711 0.042795859
-0.059999976 -0.02310046 0.043317497
0.059999995 -0.022936353 0.042855635
0.060000002 -0.023048909 0.04284035
-0.05999998 -0.020973759 0.043098465
0.059999995 -0.02095131 0.043061059
0.060000002 -0.021099523 0.043027695
-0.059999987 -0.019026009 0.042961385
0.059999999 -0.018536093 0.042956743
0.060000002 -0.018866025 0.042870004
-0.059999999 -0.01720369 0.042978548
0.059999999 -0.017103231 0.04297905
0.060000002 -0.017101161 0.04307314
-0.059999987 -0.0150348 0.042930439
0.059999987 -0.01510294 0.042832084
0.060000002 -0.014804658 0.043110624
-0.060000002 -0.012729194 0.042863648
0.059999999 -0.01308118 0.043049891
0.060000002 -0.013228456 0.04270792
-0.059999973 -0.010958217 0.042933002
0.059999976 -0.010991251 0.042969905
0.060000002 -0.011301083 0.042838763
-0.059999991 -0.009118503 0.043021932
0.059999995 -0.0090004029 0.042995974
0.060000002 -0.0093563758 0.042282708
-0.059999991 -0.0070582055 0.042881794
0.059999991 -0.0070364326 0.043006767
0.060000002 -0.0073027136 0.043290906
-0.059999984 -0.0048381444 0.043152023
0.059999999 -0.0048758397 0.043256242
0.060000002 -0.0051316 0.043005459
-0.059999984 -0.0032474196 0.043107763
0.059999999 -0.0028844099 0.042890288
0.060000002 -0.0034007884 0.042679232
-0.059999991 -0.0010372078 0.043042593
0.059999999 -0.0013302512 0.042960856
0.060000002 -0.0011069963 0.042969517
-0.060000002 0.00090756093 0.042903144
0.059999984 0.0011646751 0.042979587
0.060000002 0.00098385639 0.042909756
-0.059999987 0.0025467151 0.043054108
0.059999999 0.0029425058 0.043038834
0.060000002 0.0030486987 0.04279289
-0.060000002 0.0049569947 0.04284253
0.059999999 0.0050556492 0.042915691
0.060000002 0.0050373557 0.042862821
-0.059999984 0.0070077484 0.043358754
0.059999976 0.0071287784 0.042819437
0.060000002 0.0073953252 0.043169461
-0.05999998 0.0091317557 0.042955499
0.059999991 0.0090768207 0.043079812
0.060000002 0.0097339498 0.042869806
-0.05999998 0.011103933 0.043153457
0.059999999 0.011084374 0.042852905
0.060000002 0.010658083 0.042612012
-0.05999998 0.012970938 0.042992398
0.059999999 0.013184628 0.043020509
0.060000002 0.013064799 0.042930767
-0.059999987 0.015051507 0.042860806
0.05999998 0.015101457 0.042917844
0.060000002 0.015296843 0.043260854
-0.059999999 0.016830757 0.042890269
0.059999991 0.01704145 0.042926401
0.060000002 0.017172461 0.043108318
-0.059999976 0.01913986 0.042966262
0.059999999 0.019060388 0.042809024
0.060000002 0.018741725 0.043044489
-0.059999991 0.02110178 0.043213688
0.059999999 0.020950792 0.042751111
0.060000002 0.021253884 0.043092318
-0.059999991 0.022898493 0.043175347
0.059999999 0.023166217 0.042995106
0.060000002 0.023033639 0.042945139
-0.059999976 0.024880849 0.043038074
0.059999991 0.02505951 0.042912938
0.060000002 0.025185907 0.042760123
-0.059999976 0.026714146 0.043084424
0.059999984 0.027083021 0.043247312
0.060000002 0.027016925 0.043183293
-0.059999976 0.028927833 0.042869959
0.059999999 0.028992383 0.043048717
0.060000002 0.029175641 0.043111388
-0.059999969 0.031085011 0.043018315
0.059999991 0.031104788 0.043091767
0.060000002 0.030802384 0.043260749
-0.059999999 0.033206724 0.043140862
0.059999991 0.033089254 0.0429295
0.060000002 0.033000287 0.042729806
-0.059999987 0.035121646 0.042637382
0.059999995 0.03497747 0.043040954
0.060000002 0.035054393 0.042451493
-0.059999987 0.036822915 0.042933073
0.059999984 0.036917266 0.042965885
0.060000002 0.037013356 0.042593833
-0.059999991 0.039076325 0.043185599
0.059999976 0.038848154 0.043019097
0.060000002 0.038711119 0.043203551
-0.059999987 0.040951461 0.043071281
0.059999991 0.040790375 0.043095388
0.060000002 0.041286517 0.043116838
-0.059999984 0.042987328 0.042937074
0.059999995 0.043136399 0.042995766
0.060000002 0.042988043 0.04314144
-0.059350275 0.04479805 0.04301988
-0.057005111 0.045000009 0.042995799
-0.054929364 0.045000013 0.043025032
-0.052932709 0.045000009 0.042839807
-0.051087696 0.045000009 0.043013044
-0.048730604 0.045000009 0.043075316
-0.046940055 0.044999998 0.043006353
-0.045017235 0.045000009 0.043019462
-0.043011535 0.044999998 0.042940222
-0.040880155 0.044999994 0.042969733
-0.038995966 0.044999991 0.042982597
-0.036963459 0.045000006 0.0430611
-0.035288583 0.045000009 0.043007988
-0.033221439 0.045000009 0.043112352
-0.031102104 0.045000009 0.04313726
-0.029072836 0.044999998 0.043106809
-0.027126212 0.045000013 0.043037679
-0.024980456 0.045000013 0.043042839
-0.022787908 0.045000002 0.042969879
-0.020777656 0.045000009 0.04290314
-0.018859847 0.045000009 0.043020211
-0.016742064 0.045000006 0.042894255
-0.014988155 0.045000006 0.042829882
-0.01291895 0.045000002 0.042858917
-0.011094225 0.044999998 0.043100234
-0.0090350648 0.045000006 0.042770278
-0.0070475615 0.044999998 0.042964615
-0.0051498739 0.045000009 0.042996056
-0.002965454 0.045000006 0.042913858
-0.00093933661 0.045000013 0.043090656
0.00083240547 0.045000002 0.042954829
0.0029694978 0.045000006 0.043013085
0.0051785423 0.045000009 0.042930502
0.0070416769 0.044999998 0.042899966
0.008960776 0.045000009 0.043029029
0.010840874 0.045000006 0.04307558
0.013095089 0.045000013 0.043010447
0.014922481 0.045000002 0.043027092
0.016787801 0.045000002 0.042829372
0.018752743 0.045000009 0.043022692
0.021075215 0.045000002 0.043024782
0.023163972 0.045000006 0.043009702
0.025098514 0.045000009 0.043195758
0.026960576 0.045000009 0.042937711
0.028943187 0.045000009 0.042834479
0.030889988 0.045000009 0.042927988
0.033190142 0.045000006 0.043334141
0.035018332 0.044999998 0.042905558
0.037010234 0.045000002 0.043009941
0.038845528 0.045000009 0.042915013
0.041061375 0.045000006 0.042893823
0.043114085 0.045000009 0.042941358
0.045139514 0.044999998 0.042770728
0.046769351 0.045000006 0.042983975
0.048950329 0.045000013 0.043345995
0.050805528 0.045000006 0.04290105
0.052924473 0.045000006 0.043008145
0.054975733 0.045000013 0.042976391
0.056708559 0.045000009 0.042937268
0.059401613 0.044840947 0.043173298
0.060000002 0.044393212 0.042895287
-0.059112642 -0.044890262 0.045092106
-0.057094935 -0.045000009 0.044881377
-0.055100609 -0.045000013 0.044816591
-0.053080656 -0.045000009 0.04503154
-0.051024072 -0.045000009 0.044970155
-0.049012832 -0.044999998 0.045072179
-0.046946786 -0.045000009 0.044943649
-0.044890512 -0.045000006 0.04501513
-0.042865943 -0.045000006 0.045025591
-0.040930476 -0.045000013 0.045173351
-0.038849987 -0.044999994 0.045124076
-0.037104357 -0.044999998 0.044971317
-0.03488382 -0.045000009 0.04520585
-0.033098515 -0.045000009 0.044725362
-0.03101531 -0.044999991 0.045109369
-0.029072899 -0.045000006 0.044762321
-0.027123179 -0.045000002 0.044949032
-0.025152814 -0.045000009 0.045334842
-0.022916345 -0.045000002 0.044975776
-0.021174595 -0.045000009 0.045194875
-0.018857356 -0.045000009 0.044899106
-0.017019292 -0.044999987 0.045029774
-0.014851756 -0.045000009 0.044925697
-0.01292534 -0.044999991 0.04491033
-0.010843141 -0.045000002 0.045034625
-0.0090104267 -0.045000006 0.044919204
-0.0068593533 -0.045000013 0.044993255
-0.0051646261 -0.044999998 0.044906631
-0.0029095174 -0.045000009 0.044979967
-0.0010419682 -0.045000009 0.04488543
0.0010010027 -0.044999998 0.045078073
0.0031892974 -0.045000009 0.044958748
0.0049311914 -0.045000002 0.044970568
0.0070241522 -0.045000009 0.044862438
0.0089189988 -0.045000009 0.045004874
0.010998346 -0.044999994 0.044922043
0.012960388 -0.045000009 0.045062955
0.014990004 -0.045000009 0.044969555
0.016940223 -0.045000009 0.044958211
0.018991943 -0.045000002 0.044988036
0.02095402 -0.045000009 0.04503794
0.022979572 -0.045000009 0.044888474
0.024900483 -0.044999998 0.045016609
0.027281923 -0.045000006 0.044985246
0.028942082 -0.044999998 0.044993896
0.030933866 -0.045000009 0.045299865
0.033048071 -0.045000006 0.04494001
0.035010826 -0.044999998 0.045057017
0.037111521 -0.045000009 0.045113802
0.038861338 -0.044999994 0.045032177
0.04093783 -0.045000002 0.044948794
0.043010745 -0.045000009 0.045190301
0.045091905 -0.044999998 0.045034494
0.046829283 -0.045000013 0.044901077
0.048906121 -0.044999998 0.045004193
0.050925009 -0.045000009 0.044979498
0.053162999 -0.045000009 0.044883892
0.055079788 -0.045000009 0.044894587
0.05710065 -0.045000009 0.044819828
0.059526663 -0.044810213 0.045003571
0.060000002 -0.044498563 0.045069098
-0.059999976 -0.043019347 0.044990227
0.059999999 -0.042895775 0.044940036
0.060000002 -0.042858552 0.044893719
-0.059999976 -0.041079663 0.044954181
0.059999999 -0.041098356 0.044913523
0.060000002 -0.040976394 0.045079768
-0.059999976 -0.039055336 0.045041714
0.059999999 -0.038995344 0.045116432
0.060000002 -0.039375816 0.045095399
-0.059999987 -0.037078317 0.045040086
0.059999991 -0.037010502 0.045036335
0.060000002 -0.037021197 0.044741195
-0.059999984 -0.035347987 0.044929806
0.059999995 -0.034977552 0.045170136
0.060000002 -0.034937683 0.044671189
-0.059999991 -0.033030145 0.045047421
0.059999976 -0.032727253 0.045006182
0.060000002 -0.033445604 0.045254573
-0.059999984 -0.030817244 0.045033269
0.059999999 -0.03066517 0.045133147
0.060000002 -0.031249784 0.044805761
-0.059999976 -0.029010685 0.045109179
0.059999991 -0.028982416 0.045040112
0.060000002 -0.028558953 0.044899248
-0.05999998 -0.027037987 0.045106821
0.059999999 -0.026956614 0.044876888
0.060000002 -0.027227627 0.044196211
-0.059999987 -0.0248069 0.044988692
0.059999999 -0.025137173 0.04499707
0.060000002 -0.025363006 0.045180783
-0.059999991 -0.022953372 0.04518161
0.059999999 -0.023054888 0.044929005
0.060000002 -0.023245698 0.044703662
-0.059999995 -0.02114697 0.045078691
0.059999991 -0.0210397 0.045089122
0.060000002 -0.020672431 0.044722576
-0.059999999 -0.019092619 0.045089334
0.059999999 -0.018608695 0.045175973
0.060000002 -0.019004581 0.044720929
-0.059999991 -0.016805327 0.044925954
0.059999999 -0.016945533 0.044992223
0.060000002 -0.016984351 0.044950627
-0.05999998 -0.014997754 0.044755384
0.059999999 -0.015081222 0.044904906
0.060000002 -0.014961494 0.044642843
-0.059999987 -0.013165708 0.044905026
0.059999999 -0.012833196 0.04494242
0.060000002 -0.012744543 0.045400601
-0.059999984 -0.011094631 0.045005895
0.059999995 -0.011100983 0.04497106
0.060000002 -0.010823316 0.045099415
-0.059999984 -0.0088555356 0.045007568
0.059999999 -0.0091380933 0.045076754
0.060000002 -0.0091793435 0.04488387
-0.059999976 -0.0069643804 0.044911355
0.059999999 -0.0069911014 0.044905398
0.060000002 -0.0065122638 0.044491541
-0.059999991 -0.0050814655 0.045060955
0.059999995 -0.0046596294 0.0449549
0.060000002 -0.0050279829 0.045253113
-0.05999998 -0.0031560687 0.044984799
0.05999998 -0.0031180105 0.04504136
0.060000002 -0.0026288268 0.045354091
-0.05999998 -0.00095069455 0.044997264
0.059999984 -0.0010798048 0.0449518
0.060000002 -0.00084071694 0.045128625
-0.059999995 0.0011498871 0.045257684
0.059999987 0.00093637139 0.0449512
0.060000002 0.0010016937 0.044680532
-0.059999987 0.0029178089 0.044852618
0.059999999 0.0029603587 0.045389146
0.060000002 0.0026169922 0.045459144
-0.059999976 0.0050353319 0.044983074
0.05999998 0.0050508915 0.044843178
0.060000002 0.0053483746 0.044965133
-0.05999998 0.0069983359 0.045009661
0.059999995 0.0068765492 0.044967867
0.060000002 0.0067176009 0.045231424
-0.059999991 0.00898863 0.044959147
0.059999999 0.0089721931 0.044713251
0.060000002 0.0091491928 0.044991642
-0.059999987 0.010929314 0.044933844
0.059999987 0.010979976 0.04487345
0.060000002 0.010960115 0.045391817
-0.059999976 0.013146164 0.045114279
0.059999999 0.013301983 0.045151401
0.060000002 0.012498687 0.045065083
-0.059999976 0.015048365 0.045101874
0.059999991 0.015028615 0.045101609
0.060000002 0.015083221 0.045386065
-0.059999973 0.017035084 0.04521988
0.059999995 0.017191552 0.044914145
0.059999999 0.016908422 0.044788022
-0.059999984 0.019221228 0.04476314
0.059999999 0.019141782 0.045023959
0.060000002 0.01865088 0.044691782
-0.059999984 0.020979049 0.045190375
0.059999995 0.021019941 0.044999991
0.059999991 0.020876085 0.044847071
-0.059999999 0.022882592 0.044816062
0.059999999 0.02339837 0.04506661
0.060000002 0.02303515 0.045389161
-0.059999973 0.025062673 0.044762067
0.059999999 0.0251655 0.045133855
0.060000002 0.025148446 0.045028858
-0.059999976 0.026989425 0.044832654
0.059999999 0.026833057 0.045153983
0.060000002 0.02679765 0.044986863
-0.059999984 0.029048165 0.045076907
0.059999995 0.0289234 0.045024917
0.060000002 0.028812921 0.044626925
-0.059999987 0.031048108 0.04495468
0.059999999 0.031372365 0.045031875
0.060000002 0.030861214 0.044820491
-0.05999998 0.032869402 0.045143317
0.059999999 0.032991461 0.045011397
0.060000002 0.032930978 0.044674285
-0.059999999 0.035031896 0.04505172
0.059999987 0.035090916 0.045147631
0.060000002 0.034482051 0.044912044
-0.05999998 0.036996149 0.044858381
0.059999984 0.036915902 0.04490988
0.060000002 0.037056256 0.045047365
-0.05999998 0.03892025 0.04492614
0.059999999 0.038973715 0.045154952
0.060000002 0.038910098 0.04507507
-0.059999976 0.040989805 0.044940941
0.059999999 0.040864948 0.044794384
0.060000002 0.041318752 0.04475712
-0.059999991 0.04276998 0.044785608
0.059999999 0.043079324 0.044756111
0.060000002 0.043619357 0.045326643
-0.059344947 0.044834763 0.044952601
-0.056823395 0.045000009 0.044948898
-0.054868896 0.045000009 0.045051236
-0.053043008 0.044999998 0.044786669
-0.050853413 0.045000009 0.045113157
-0.048844803 0.045000009 0.04511106
-0.046859372 0.045000009 0.0450399
-0.04500059 0.045000006 0.04492319
-0.043085974 0.044999998 0.045170672
-0.041054036 0.045000002 0.045116398
-0.038920771 0.044999998 0.045111489
-0.03701333 0.045000009 0.045230418
-0.035051208 0.045000009 0.045011457
-0.033144712 0.045000006 0.044970941
-0.031131355 0.045000009 0.044887859
-0.028909734 0.045000002 0.045079257
-0.026816919 0.044999994 0.044880453
-0.025049172 0.044999987 0.04515944
-0.02298248 0.044999998 0.044982925
-0.021091174 0.045000013 0.04503895
-0.019016378 0.045000002 0.044870216
-0.017094122 0.044999998 0.044897847
-0.014967341 0.044999994 0.04490668
-0.013101158 0.045000009 0.045135178
-0.011117455 0.044999994 0.045030985
-0.0091928709 0.045000009 0.045094065
-0.0068907561 0.044999998 0.045035217
-0.0048189266 0.045000013 0.04489639
-0.0029172916 0.045000006 0.045146488
-0.0012209236 0.045000009 0.044799071
0.0010988595 0.045000006 0.044883687
0.0032091273 0.045000009 0.04503727
0.0050367052 0.045000006 0.045077924
0.0068807844 0.045000009 0.044909269
0.0089956112 0.045000006 0.044736806
0.010848446 0.045000006 0.045154788
0.013108446 0.045000009 0.044969037
0.015219837 0.045000006 0.045096103
0.017087219 0.044999994 0.04495161
0.019013407 0.044999991 0.044830378
0.020907795 0.045000002 0.044934526
0.023181403 0.045000009 0.04520135
0.025071094 0.045000002 0.045200936
0.026816422 0.044999998 0.044871241
0.029079625 0.044999998 0.04493754
0.031036165 0.045000009 0.044766799
0.033063497 0.045000013 0.044862911
0.035035938 0.045000009 0.045053296
0.03691195 0.045000009 0.045084588
0.038705379 0.045000009 0.045150831
0.041187089 0.044999998 0.044879328
0.042887196 0.045000013 0.044885229
0.045022797 0.044999998 0.045045428
0.04702194 0.045000013 0.045011126
0.049048182 0.045000002 0.045165539
0.051055867 0.045000006 0.045191575
0.053087212 0.045000006 0.045238651
0.055072743 0.045000002 0.045188833
0.05668354 0.045000006 0.044869471
0.059107754 0.044885501 0.04501006
0.060000002 0.04450275 0.04439415
-0.059448864 -0.044814747 0.046988379
-0.057296406 -0.045000009 0.047141079
-0.054756436 -0.045000013 0.047014598
-0.052905913 -0.045000002 0.047040477
-0.05104696 -0.045000002 0.04706867
-0.048853528 -0.044999998 0.046888694
-0.046872631 -0.045000009 0.047251783
-0.045041386 -0.044999991 0.046969865
-0.042894561 -0.044999994 0.046851046
-0.040936898 -0.045000002 0.047064021
-0.039102308 -0.045000009 0.046988968
-0.037009016 -0.045000002 0.046985086
-0.03492276 -0.044999998 0.04690602
-0.032789852 -0.045000006 0.04703379
-0.0310864 -0.044999991 0.047085434
-0.028986456 -0.045000006 0.04709867
-0.026848592 -0.045000002 0.047113873
-0.02508473 -0.044999998 0.047153194
-0.022994621 -0.045000002 0.046903048
-0.021004573 -0.045000009 0.046830088
-0.018956337 -0.044999994 0.046984244
-0.016912865 -0.045000013 0.04718294
-0.015011095 -0.045000006 0.047004357
-0.012938654 -0.045000009 0.046835475
-0.011041332 -0.045000006 0.046998147
-0.0089281518 -0.045000009 0.046938494
-0.0069986801 -0.044999998 0.047063317
-0.0048027704 -0.045000009 0.046944503
-0.0030009693 -0.044999994 0.046930972
-0.0010725276 -0.044999994 0.046921924
0.0012609983 -0.045000009 0.047254041
0.0030375461 -0.045000006 0.046961531
0.0050087138 -0.045000009 0.046826281
0.0072811544 -0.045000013 0.04708821
0.0090479339 -0.044999994 0.046984933
0.011016429 -0.045000013 0.047014534
0.013154011 -0.044999998 0.046928562
0.014894026 -0.044999994 0.047092564
0.016680779 -0.045000013 0.046808574
0.018897947 -0.045000009 0.046966273
0.020585617 -0.045000009 0.046943359
0.022855084 -0.045000009 0.047029834
0.025060428 -0.044999998 0.047072213
0.027032385 -0.045000009 0.047074314
0.028958634 -0.044999998 0.04711384
0.030828273 -0.045000009 0.046977106
0.033090398 -0.045000013 0.0472311
0.034815427 -0.045000009 0.047079414
0.037073426 -0.045000009 0.04707665
0.038925987 -0.045000002 0.047034051
0.040933784 -0.045000009 0.047108922
0.04336435 -0.045000006 0.047215082
0.044934154 -0.045000009 0.047155719
0.046826776 -0.044999998 0.046987239
0.049095545 -0.044999998 0.04695655
0.050954975 -0.045000006 0.04705397
0.053174566 -0.044999998 0.047041181
0.054972496 -0.045000006 0.047017351
0.057035074 -0.044999994 0.046859428
0.059317783 -0.044753477 0.047016218
0.060000002 -0.044503141 0.046896905
-0.059999973 -0.043025736 0.047072321
0.059999999 -0.043000001 0.046959996
0.060000002 -0.043000869 0.047189958
-0.059999976 -0.041104842 0.047161173
0.059999991 -0.04114566 0.047101229
0.060000002 -0.041036833 0.04711793
-0.059999999 -0.038938068 0.047218181
0.059999999 -0.038973395 0.047320008
0.060000002 -0.03886573 0.047501832
-0.059999973 -0.037062198 0.04693523
0.059999995 -0.037015531 0.046780281
0.060000002 -0.037001934 0.047166988
-0.059999987 -0.034993444 0.047020931
0.059999995 -0.034967348 0.04709135
0.060000002 -0.035138279 0.047557659
-0.059999976 -0.032872483 0.046923298
0.059999999 -0.032825187 0.04709224
0.060000002 -0.033062708 0.046949308
-0.059999976 -0.031127026 0.047040757
0.059999984 -0.030846223 0.047037233
0.060000002 -0.030950412 0.047112044
-0.060000002 -0.02891784 0.047097478
0.05999998 -0.029048391 0.046948358
0.060000002 -0.028245583 0.04719412
-0.059999973 -0.027142888 0.047062606
0.059999984 -0.027171476 0.046806332
0.060000002 -0.027019914 0.047032088
-0.059999995 -0.024950376 0.046860762
0.059999999 -0.024940325 0.046880145
0.060000002 -0.024644174 0.047322448
-0.059999976 -0.02298753 0.046923589
0.059999999 -0.023017785 0.047100652
0.060000002 -0.022867944 0.046967268
-0.059999987 -0.020928012 0.046951488
0.05999998 -0.021047028 0.046954609
0.060000002 -0.021207694 0.0468251
-0.059999987 -0.018891854 0.046835344
0.059999991 -0.018871248 0.046731204
0.060000002 -0.018378986 0.047622178
-0.059999976 -0.016970161 0.047016524
0.059999991 -0.016601305 0.047059674
0.060000002 -0.016742559 0.047005769
-0.059999984 -0.015112323 0.047042638
0.059999991 -0.014889099 0.046757434
0.060000002 -0.015377209 0.046869099
-0.059999973 -0.013096446 0.047056984
0.059999999 -0.013086336 0.047160652
0.060000002 -0.013214209 0.047374006
-0.059999987 -0.011201671 0.046938229
0.059999991 -0.01091833 0.046939593
0.060000002 -0.010684783 0.046629366
-0.059999976 -0.0089746704 0.04714765
0.059999995 -0.0089245047 0.047110446
0.060000002 -0.0094514592 0.047077719
-0.059999984 -0.0067820363 0.047205899
0.059999995 -0.007298734 0.047501788
0.060000002 -0.0069682267 0.046834435
-0.05999998 -0.0049858135 0.04707744
0.059999991 -0.0049239313 0.04702197
0.060000002 -0.0045177802 0.046477731
-0.059999976 -0.0029571108 0.047060318
0.059999995 -0.0030806675 0.046802249
0.060000002 -0.0031040888 0.04679862
-0.059999976 -0.00099843461 0.047034632
0.059999999 -0.00066978391 0.047089357
0.060000002 -0.0010068121 0.047231562
-0.059999984 0.00090918923 0.046979498
0.059999991 0.00091773813 0.047081027
0.060000002 0.001022693 0.046742726
-0.059999991 0.0028497532 0.047017232
0.059999995 0.0028938917 0.046798714
0.060000002 0.0032011308 0.047255885
-0.05999998 0.004985929 0.047031607
0.059999995 0.0048702206 0.046831958
0.060000002 0.0046193586 0.047168326
-0.059999984 0.007150976 0.04690383
0.059999999 0.0071640462 0.047313116
0.060000002 0.0074372734 0.046556126
-0.059999976 0.0089321975 0.047060631
0.059999976 0.0090792971 0.046856754
0.060000002 0.0089898985 0.047203332
-0.059999987 0.010800759 0.047011465
0.059999999 0.010914336 0.047122244
0.060000002 0.011359681 0.047134515
-0.059999987 0.01299356 0.0469497
0.059999991 0.012995741 0.046861842
0.060000002 0.01280693 0.04738434
-0.060000002 0.015059611 0.046945546
0.059999991 0.014985921 0.046984866
0.060000002 0.014938521 0.046847351
-0.059999976 0.016955065 0.047000676
0.059999991 0.017098049 0.047074884
0.060000002 0.017058572 0.047461469
-0.059999976 0.019141028 0.04688954
0.059999999 0.019187937 0.047129747
0.060000002 0.019007925 0.047064077
-0.059999976 0.021139147 0.047266886
0.059999999 0.021074364 0.046660196
0.060000002 0.020988878 0.047061723
-0.059999965 0.022892557 0.046896014
0.059999991 0.022771128 0.046880435
0.060000002 0.022783892 0.046965323
-0.059999976 0.025219042 0.04701212
0.059999999 0.02515278 0.046895839
0.060000002 0.025015431 0.04683416
-0.059999999 0.027044415 0.046884883
0.059999999 0.026924416 0.046986464
0.060000002 0.027330458 0.046773653
-0.059999987 0.029158397 0.047020856
0.059999999 0.028880291 0.04699672
0.060000002 0.029001441 0.046786446
-0.059999991 0.030966414 0.046766009
0.059999999 0.030759171 0.046770897
0.060000002 0.030983893 0.04739527
-0.059999987 0.032802328 0.046903852
0.059999999 0.03307648 0.047043029
0.060000002 0.033306044 0.046928734
-0.059999987 0.035045769 0.046865288
0.059999976 0.035267439 0.047053345
0.060000002 0.03482483 0.047146808
-0.059999984 0.036964163 0.046838775
0.059999984 0.036972586 0.046962805
0.060000002 0.03724952 0.04683803
-0.05999998 0.039041016 0.046915051
0.059999991 0.039038252 0.047081713
0.060000002 0.038907982 0.046620268
-0.059999969 0.040963009 0.047024038
0.059999995 0.041063361 0.047014609
0.060000002 0.040894877 0.04731825
-0.059999991 0.042915344 0.046989586
0.059999999 0.042708892 0.046838496
0.060000002 0.043398313 0.047049362
-0.059205532 0.044879742 0.047095329
-0.056911204 0.045000009 0.046987668
-0.054745611 0.045000009 0.046849318
-0.053070366 0.045000009 0.047033865
-0.051007867 0.045000009 0.047092836
-0.048781704 0.045000009 0.046988327
-0.047061384 0.045000002 0.047115244
-0.045000341 0.045000013 0.046853747
-0.043079458 0.045000009 0.04719444
-0.04097959 0.045000009 0.047064513
-0.038916234 0.045000006 0.047034856
-0.036897168 0.045000002 0.04707941
-0.035038482 0.044999998 0.046997309
-0.033034377 0.045000009 0.046784565
-0.030956976 0.045000006 0.046945829
-0.028935526 0.044999994 0.047082949
-0.027006809 0.045000009 0.04703423
-0.024871269 0.045000009 0.046869744
-0.023113564 0.045000002 0.046874814
-0.020993946 0.044999998 0.047025524
-0.01917439 0.045000009 0.046681546
-0.016765518 0.045000009 0.047185309
-0.014957666 0.045000006 0.047201253
-0.012970096 0.045000013 0.046828791
-0.010949922 0.045000009 0.047142837
-0.0087565407 0.045000009 0.047142077
-0.0069821603 0.045000009 0.046977982
-0.0049143946 0.044999998 0.047122262
-0.0030292354 0.044999998 0.047140002
-0.0010867829 0.045000006 0.046819314
0.0010037954 0.045000002 0.046994157
0.0030917574 0.045000009 0.047085114
0.0051562423 0.044999998 0.046998009
0.0067613847 0.045000002 0.046936847
0.0087725176 0.045000009 0.04682716
0.010942715 0.045000009 0.04668612
0.012890894 0.045000002 0.046730191
0.014842723 0.045000006 0.046966519
0.017224181 0.045000009 0.046874806
0.019031044 0.045000006 0.04713643
0.021062229 0.045000002 0.047258858
0.023057876 0.045000009 0.04698192
0.025023017 0.045000002 0.046952624
0.027131595 0.045000002 0.047068343
0.02896017 0.045000006 0.047178071
0.030936422 0.044999998 0.047176212
0.032877069 0.044999994 0.047038991
0.034804825 0.045000009 0.04689439
0.037197702 0.045000009 0.047403868
0.039274666 0.045000009 0.047048807
0.040838789 0.045000009 0.047083251
0.042918716 0.044999998 0.046956647
0.04523265 0.045000009 0.046844549
0.047129415 0.044999991 0.047010213
0.048869036 0.045000009 0.046991173
0.05098762 0.045000006 0.047032956
0.053061202 0.045000009 0.04710212
0.055057932 0.044999994 0.047036245
0.056923691 0.045000009 0.047043256
0.05930154 0.044871964 0.046972468
0.060000002 0.044507094 0.047429238
-0.059309997 -0.044902042 0.049013186
-0.056964442 -0.045000006 0.048787843
-0.055184908 -0.045000006 0.04884987
-0.052918572 -0.044999994 0.048983209
-0.05103546 -0.044999998 0.049094833
-0.049234036 -0.045000009 0.048936922
-0.047028445 -0.044999998 0.048855897
-0.045083515 -0.045000002 0.049014851
-0.042936377 -0.044999994 0.04895968
-0.040886283 -0.045000009 0.049289316
-0.03885458 -0.045000009 0.049092781
-0.036852326 -0.045000013 0.048779216
-0.035119865 -0.045000006 0.049209982
-0.033080176 -0.045000009 0.04900071
-0.031053349 -0.045000009 0.049071297
-0.02895307 -0.044999994 0.048903417
-0.027104624 -0.045000009 0.048950799
-0.024965916 -0.045000002 0.049172606
-0.022884987 -0.045000006 0.048998509
-0.020943366 -0.045000009 0.048940562
-0.019112149 -0.045000006 0.049167931
-0.017048758 -0.045000009 0.049100976
-0.014793311 -0.044999991 0.048886295
-0.013154846 -0.045000009 0.049218766
-0.011005401 -0.045000009 0.049016383
-0.0088487221 -0.045000009 0.049138751
-0.0071610468 -0.045000006 0.04904284
-0.004929591 -0.045000002 0.048921626
-0.0029069663 -0.044999998 0.048982617
-0.00084604014 -0.045000006 0.048960891
0.00056198379 -0.045000009 0.048886798
0.0029484392 -0.045000006 0.048890602
0.0051697558 -0.045000009 0.04882646
0.0070310403 -0.044999998 0.048884485
0.0092179747 -0.045000006 0.04908403
0.010837831 -0.045000009 0.049060035
0.012988885 -0.045000009 0.04901037
0.015035095 -0.045000009 0.048857365
0.017009338 -0.045000009 0.048853029
0.019039983 -0.045000009 0.049070336
0.021008812 -0.045000006 0.048859339
0.022958154 -0.045000009 0.04893031
0.025085704 -0.045000006 0.049130797
0.026959635 -0.045000013 0.049259391
0.028842038 -0.045000009 0.048976649
0.030900402 -0.045000009 0.048799321
0.032977249 -0.045000013 0.048714936
0.034985479 -0.044999998 0.048923668
0.036964465 -0.045000002 0.048977036
0.038958129 -0.045000009 0.04883546
0.040871963 -0.045000006 0.049022105
0.043099582 -0.044999998 0.048984982
0.045073658 -0.045000009 0.049095821
0.047027677 -0.045000009 0.049028609
0.048861094 -0.045000002 0.049080212
0.051180214 -0.044999994 0.048984118
0.052962065 -0.045000006 0.049015056
0.05495384 -0.045000002 0.048927408
0.05672098 -0.045000009 0.048959631
0.059324499 -0.044788346 0.048735872
0.060000002 -0.04458487 0.049222242
-0.059999987 -0.043006953 0.049189087
0.059999999 -0.043100055 0.048757028
0.060000002 -0.043365005 0.048962176
-0.059999987 -0.040967286 0.049021278
0.059999999 -0.040968873 0.048664644
0.060000002 -0.04104073 0.04933003
-0.059999976 -0.038857576 0.049179297
0.059999991 -0.038819045 0.049071856
0.060000002 -0.039084475 0.049655795
-0.059999976 -0.036920965 0.048924066
0.059999999 -0.037019793 0.049044106
0.060000002 -0.036869206 0.048748858
-0.059999987 -0.035053514 0.049200501
0.059999999 -0.035087511 0.049041774
0.060000002 -0.034854691 0.049280763
-0.059999987 -0.033021215 0.048925854
0.059999999 -0.032856584 0.048932541
0.060000002 -0.032894779 0.048161957
-0.059999991 -0.031083781 0.049181741
0.059999999 -0.031176466 0.049028244
0.060000002 -0.031293593 0.049252912
-0.059999999 -0.028976228 0.049245238
0.059999995 -0.028919199 0.049280379
0.060000002 -0.028492345 0.048952986
-0.059999987 -0.027047835 0.049265787
0.059999987 -0.026895327 0.049115237
0.060000002 -0.026556805 0.048416823
-0.059999991 -0.024904177 0.048846159
0.059999995 -0.02494297 0.048997674
0.060000002 -0.025231922 0.048957027
-0.059999969 -0.023125332 0.049098387
0.059999999 -0.023104358 0.049227279
0.060000002 -0.022752283 0.048842378
-0.05999998 -0.021094622 0.048985027
0.059999991 -0.020972207 0.048992716
0.060000002 -0.021035641 0.049142037
-0.059999969 -0.018941937 0.049074102
0.059999976 -0.018942669 0.048921987
0.060000002 -0.01884111 0.048679054
-0.059999995 -0.0167969 0.049093667
0.059999999 -0.016858775 0.048958384
0.060000002 -0.017098228 0.048888735
-0.059999976 -0.014944705 0.04916257
0.059999991 -0.014918494 0.048910707
0.060000002 -0.015299005 0.049205728
-0.059999976 -0.013111187 0.04906689
0.059999995 -0.013236539 0.048754204
0.060000002 -0.012757031 0.049371794
-0.059999999 -0.01071416 0.048572525
0.059999991 -0.01109456 0.049054708
0.060000002 -0.011142842 0.049128518
-0.059999991 -0.009128456 0.049085364
0.059999991 -0.0091749346 0.049093239
0.060000002 -0.0088521224 0.049281511
-0.05999998 -0.0069760424 0.049096551
0.059999999 -0.0070792562 0.048865881
0.060000002 -0.0070992387 0.04872366
-0.060000002 -0.0049410104 0.049019516
0.059999991 -0.004801915 0.049204905
0.060000002 -0.0052994513 0.049115796
-0.059999973 -0.0028183672 0.048980094
0.059999999 -0.0029085171 0.048871402
0.060000002 -0.0033791622 0.04910383
-0.059999984 -0.00098968029 0.048969254
0.059999995 -0.0010618162 0.048880193
0.060000002 -0.00084349123 0.04927982
-0.059999976 0.00087641814 0.048963688
0.059999991 0.0010862499 0.048982356
0.060000002 0.00085306377 0.048789572
-0.05999998 0.0030067975 0.048867878
0.059999995 0.0031760163 0.048780017
0.060000002 0.0036061956 0.048980337
-0.059999973 0.0050606034 0.049052857
0.059999987 0.0051553827 0.048917681
0.060000002 0.0048176572 0.049281936
-0.059999984 0.0070037413 0.049063474
0.059999999 0.0072578397 0.049089145
0.060000002 0.0070683644 0.049022254
-0.05999998 0.0088630449 0.049008571
0.059999995 0.0091743954 0.049155291
0.060000002 0.00902755 0.048488423
-0.05999998 0.010980819 0.048949245
0.059999991 0.010760341 0.048917662
0.060000002 0.010888481 0.048846178
-0.059999984 0.012971196 0.049001846
0.059999987 0.013062039 0.048869327
0.060000002 0.012806369 0.048951045
-0.05999998 0.014846308 0.0489958
0.059999999 0.014929686 0.048964772
0.060000002 0.015237556 0.048934873
-0.059999991 0.017091181 0.049024902
0.059999999 0.017143572 0.049079787
0.060000002 0.017330611 0.049196973
-0.059999984 0.019054729 0.048969593
0.059999991 0.018899366 0.048955724
0.060000002 0.019187395 0.048966907
-0.059999973 0.020984598 0.049120404
0.059999995 0.020723375 0.048691489
0.060000002 0.020920241 0.049135502
-0.059999984 0.023113759 0.048970185
0.059999987 0.022796812 0.049076002
0.060000002 0.023208939 0.049145453
-0.059999973 0.02492274 0.04897875
0.059999999 0.024746923 0.048941299
0.060000002 0.024938529 0.049600795
-0.059999991 0.026947759 0.048917256
0.059999999 0.02700307 0.048913646
0.060000002 0.026873237 0.048586383
-0.060000002 0.028849632 0.04912569
0.059999999 0.028958553 0.049333587
0.060000002 0.02899692 0.048918337
-0.059999991 0.031152468 0.048836745
0.059999999 0.030976718 0.04884034
0.060000002 0.031125613 0.048737761
-0.059999987 0.033047542 0.049011871
0.059999984 0.033110969 0.049014729
0.060000002 0.032476973 0.049260825
-0.059999976 0.03484888 0.049000297
0.05999998 0.035078865 0.049000189
0.060000002 0.034710262 0.0493544
-0.059999987 0.036705822 0.048867825
0.059999987 0.036743831 0.048935305
0.060000002 0.037113648 0.049352787
-0.059999999 0.038949996 0.049068879
0.059999995 0.038970735 0.049155593
0.060000002 0.039050125 0.048973631
-0.059999991 0.040872272 0.049237065
0.059999999 0.040528793 0.048979793
0.060000002 0.040970393 0.048738822
-0.059999976 0.042836208 0.048753887
0.059999999 0.043135572 0.049053889
0.060000002 0.042895287 0.049051125
-0.059326608 0.044688739 0.049088858
-0.056913543 0.045000002 0.049067352
-0.055030297 0.044999998 0.048982717
-0.053119238 0.045000009 0.048969995
-0.051101174 0.045000006 0.048930377
-0.048982255 0.045000002 0.049238425
-0.046874743 0.045000009 0.048968047
-0.044893965 0.045000009 0.048995253
-0.043052927 0.045000002 0.04904256
-0.04093229 0.044999998 0.04921329
-0.038938802 0.045000002 0.048911136
-0.036985055 0.045000009 0.048844591
-0.035151612 0.045000009 0.04909132
-0.033038747 0.044999998 0.049127482
-0.030899007 0.045000009 0.049065396
-0.029219383 0.045000006 0.048902899
-0.026891815 0.044999998 0.048930109
-0.024849251 0.045000009 0.049102981
-0.022954615 0.045000006 0.048940748
-0.021142775 0.045000006 0.048884038
-0.019060386 0.044999998 0.049090531
-0.017083494 0.045000009 0.049116541
-0.015117057 0.045000006 0.048823379
-0.013000063 0.045000006 0.049065847
-0.010879572 0.045000009 0.0490315
-0.0089607649 0.045000006 0.049038269
-0.0071424465 0.045000009 0.049038101
-0.0048191505 0.044999998 0.049005099
-0.0029916852 0.045000013 0.049080934
-0.00082237186 0.045000006 0.049217895
0.0012409859 0.045000006 0.049131889
0.0030548773 0.044999994 0.048970476
0.0049884054 0.045000006 0.049174279
0.0070288931 0.045000002 0.049009606
0.0090407543 0.045000009 0.048754886
0.011004505 0.045000009 0.049172897
0.012922908 0.044999998 0.0490826
0.01493575 0.045000009 0.049019016
0.017116062 0.045000009 0.048912629
0.01903379 0.045000009 0.049084865
0.021048699 0.045000002 0.04907085
0.022776181 0.045000009 0.049059939
0.025058404 0.045000009 0.048909836
0.027000057 0.045000009 0.048770312
0.028925302 0.045000002 0.049036987
0.031054402 0.044999998 0.048913412
0.032885343 0.045000006 0.04925615
0.03505275 0.045000013 0.048968494
0.036916856 0.045000006 0.048933912
0.038901392 0.044999994 0.048996747
0.040971927 0.045000006 0.049036883
0.042991467 0.045000013 0.048849735
0.04489515 0.044999998 0.048941221
0.047126956 0.045000009 0.049104046
0.048920535 0.044999998 0.048995901
0.051207922 0.044999998 0.049136247
0.05308618 0.045000009 0.049106363
0.054980069 0.045000009 0.049140476
0.057028815 0.044999987 0.048847526
0.059042003 0.044922762 0.04895968
0.060000002 0.044742931 0.049376864
-0.059353765 -0.04484316 0.051137127
-0.057060391 -0.045000006 0.050948128
-0.054738194 -0.045000006 0.051131632
-0.052785113 -0.044999994 0.05079725
-0.051051706 -0.045000009 0.050968368
-0.049092438 -0.045000013 0.051050663
-0.047056619 -0.045000009 0.050954785
-0.044898212 -0.045000002 0.050967284
-0.042917084 -0.044999998 0.050984584
-0.0408751 -0.045000009 0.050961319
-0.038983077 -0.045000009 0.05122488
-0.0369136 -0.044999998 0.050981455
-0.034919377 -0.045000006 0.050991554
-0.033146594 -0.044999998 0.050795801
-0.030835195 -0.045000009 0.050961521
-0.028981008 -0.045000009 0.051148295
-0.027130738 -0.045000009 0.051007766
-0.024934459 -0.045000009 0.051408879
-0.023061117 -0.045000009 0.05110668
-0.020864664 -0.044999998 0.051002938
-0.019052438 -0.045000009 0.050681878
-0.016968746 -0.045000002 0.050884716
-0.015053218 -0.045000009 0.051226974
-0.013085204 -0.045000013 0.051099088
-0.011227042 -0.045000006 0.050888959
-0.0088903597 -0.045000006 0.050837804
-0.0070348526 -0.045000006 0.051183462
-0.004864092 -0.045000013 0.050713252
-0.003151715 -0.045000013 0.051000711
-0.00088056177 -0.045000009 0.051106095
0.0010820486 -0.044999991 0.050976302
0.0029481899 -0.044999998 0.051017094
0.0051397798 -0.045000009 0.05096484
0.0070334999 -0.044999994 0.051014125
0.0090377545 -0.045000009 0.051086966
0.010944961 -0.045000013 0.051146951
0.012995544 -0.045000009 0.051078059
0.01505691 -0.045000009 0.05118113
0.017020283 -0.045000002 0.051101211
0.019048687 -0.044999994 0.05084331
0.021107981 -0.045000002 0.050986368
0.023133304 -0.045000006 0.05102573
0.025213936 -0.044999998 0.051089257
0.0271197 -0.045000002 0.051113319
0.028802997 -0.045000006 0.050880563
0.030888515 -0.045000009 0.051218361
0.033064518 -0.045000009 0.050883517
0.034910038 -0.045000009 0.051082354
0.037061185 -0.045000009 0.05108396
0.039099764 -0.045000006 0.051129863
0.041223209 -0.045000006 0.051309209
0.04298915 -0.045000006 0.051099595
0.045101192 -0.045000009 0.050973419
0.047011655 -0.045000009 0.050992101
0.048929363 -0.045000002 0.050899893
0.051004168 -0.045000013 0.050970539
0.052950703 -0.045000006 0.051004123
0.054737177 -0.045000006 0.051026825
0.057328679 -0.044999998 0.051357962
0.059261136 -0.044812273 0.051101476
0.060000002 -0.04457055 0.051598102
-0.05999998 -0.043129925 0.051016826
0.059999995 -0.042828739 0.050879218
0.060000002 -0.043471649 0.050751604
-0.059999984 -0.0409039 0.051065151
0.059999991 -0.041129544 0.050798304
0.060000002 -0.040965784 0.051250178
-0.059999987 -0.038885321 0.051058974
0.059999999 -0.039022245 0.051051669
0.060000002 -0.038489684 0.051455904
-0.05999998 -0.036795653 0.051105108
0.059999991 -0.037103076 0.051046301
0.060000002 -0.03694455 0.050783712
-0.059999987 -0.034956943 0.050904192
0.059999999 -0.035001475 0.051187497
0.060000002 -0.034925271 0.050874393
-0.059999976 -0.0328742 0.051013749
0.059999999 -0.032861076 0.051121149
0.060000002 -0.033058915 0.05105865
-0.059999999 -0.031172886 0.050957695
0.059999991 -0.030900689 0.05092372
0.060000002 -0.031233165 0.051413927
-0.059999976 -0.028937517 0.051129349
0.059999999 -0.028993903 0.050750282
0.060000002 -0.029173631 0.05119741
-0.060000002 -0.02696267 0.051042303
0.059999991 -0.026979139 0.051100917
0.060000002 -0.026747067 0.050778218
-0.059999999 -0.025049265 0.050866865
0.059999999 -0.024793882 0.051364187
0.060000002 -0.024622031 0.050728466
-0.059999984 -0.022969669 0.050732039
0.059999991 -0.022986781 0.051021237
0.060000002 -0.022934733 0.050679501
-0.059999976 -0.021002626 0.050931688
0.059999984 -0.021246148 0.050988492
0.060000002 -0.021549899 0.051846914
-0.059999976 -0.018945104 0.050912764
0.059999991 -0.01893926 0.051151525
0.060000002 -0.019268842 0.050957624
-0.059999984 -0.01723936 0.051130284
0.059999991 -0.016996467 0.05093747
0.060000002 -0.017175341 0.050763443
-0.060000002 -0.015172242 0.051265899
0.059999991 -0.014820659 0.05098087
0.060000002 -0.015295163 0.051034365
-0.059999973 -0.013076741 0.050999802
0.059999984 -0.013179554 0.050974391
0.060000002 -0.012613557 0.050921362
-0.059999984 -0.011202524 0.051005211
0.059999991 -0.01085178 0.051080599
0.060000002 -0.010939076 0.050806697
-0.059999991 -0.0088204248 0.050916873
0.059999999 -0.0092885643 0.051030841
0.060000002 -0.009543973 0.051344089
-0.059999984 -0.007321422 0.051259529
0.059999991 -0.0071487017 0.050820984
0.060000002 -0.0070924433 0.051014304
-0.059999984 -0.0047879606 0.051009201
0.059999999 -0.0051100482 0.050938837
0.060000002 -0.0052997279 0.050930981
-0.059999991 -0.0028790769 0.050959181
0.059999999 -0.0029661548 0.050815295
0.060000002 -0.0030267909 0.050699063
-0.059999984 -0.00098424684 0.051068503
0.059999984 -0.001030134 0.051110823
0.060000002 -0.001107284 0.051561721
-0.05999998 0.0010300495 0.050990954
0.059999999 0.00082373532 0.050736248
0.060000002 0.0009662644 0.050778456
-0.05999998 0.0030356576 0.050820988
0.059999991 0.0028395914 0.051023435
0.060000002 0.0032252599 0.051083963
-0.05999998 0.0048503089 0.050884992
0.059999991 0.0047390372 0.050918132
0.060000002 0.0051765013 0.051129196
-0.059999991 0.0070127733 0.051010888
0.059999995 0.0068534277 0.050650705
0.060000002 0.0066771712 0.051076237
-0.05999998 0.0090537462 0.050957404
0.059999999 0.0090661971 0.050948523
0.060000002 0.008651793 0.051084768
-0.059999987 0.011190019 0.051108908
0.059999987 0.010873034 0.050985105
0.060000002 0.010609816 0.051081788
-0.059999984 0.012898012 0.051081765
0.059999999 0.012951592 0.051079687
0.060000002 0.013262913 0.051203184
-0.059999976 0.014844756 0.051069058
0.059999995 0.015141029 0.051394589
0.060000002 0.014581808 0.051473737
-0.059999999 0.016988471 0.051083919
0.059999999 0.01694891 0.051056303
0.060000002 0.016715433 0.050739598
-0.059999984 0.019087268 0.051033366
0.059999999 0.019012298 0.051290791
