# .PCD v0.7 - Point Cloud Data file format
VERSION 0.7
FIELDS x y z
SIZE 4 4 4
TYPE F F F
COUNT 1 1 1
WIDTH 1287
HEIGHT 1
VIEWPOINT 0 0 0 1 0 0 0
POINTS 1287
DATA ascii
-0.058228493 -0.04293834 -0.041499164
-0.051845778 -0.042986058 -0.041632175
-0.043802388 -0.042945549 -0.04162984
-0.035899941 -0.042966343 -0.041614447
-0.027939782 -0.042960525 -0.041613918
-0.020028146 -0.042963065 -0.041595615
-0.012042401 -0.042957433 -0.041594237
-0.0039944551 -0.042975675 -0.041592196
0.0040144483 -0.042936668 -0.041586153
0.011978457 -0.042935673 -0.04157839
0.020009873 -0.042917252 -0.041582301
0.028026417 -0.04297059 -0.041566096
0.0358827 -0.042968329 -0.041566674
0.04400339 -0.042919844 -0.041544851
0.052026372 -0.042927269 -0.041565623
0.058484152 -0.04291828 -0.04142464
-0.05825673 -0.036070842 -0.041604213
-0.051903576 -0.036046926 -0.04175885
-0.043927636 -0.035996761 -0.041769959
-0.03590703 -0.036037061 -0.041747648
-0.027938977 -0.036012184 -0.041741624
-0.020002458 -0.036042005 -0.041734077
-0.012012471 -0.035996865 -0.041736152
-0.0039915964 -0.036045931 -0.041729607
0.0040950933 -0.036001161 -0.041711651
0.012049608 -0.036022302 -0.041705836
0.02001581 -0.036032025 -0.041702617
0.028036332 -0.035989765 -0.041695453
0.03595018 -0.036021035 -0.041705951
0.044024136 -0.036033258 -0.041678149
0.052080743 -0.035994042 -0.041683231
0.058553759 -0.036009092 -0.041519407
-0.058269341 -0.027928203 -0.041570537
-0.051913094 -0.027955977 -0.041760791
-0.043906022 -0.027940184 -0.041774604
-0.035866227 -0.027876312 -0.041747414
-0.027907234 -0.027953541 -0.041745339
-0.020070955 -0.027970962 -0.041726805
-0.012150331 -0.027886551 -0.041740701
-0.0040341825 -0.027914332 -0.041731302
0.0041250554 -0.027913278 -0.041708153
0.012084889 -0.027941413 -0.041717604
0.019998757 -0.027869759 -0.041699622
0.028006721 -0.027948156 -0.041693065
0.035996635 -0.027925111 -0.041693289
0.044075962 -0.027909694 -0.041682877
0.052086554 -0.027924633 -0.041681282
0.058545627 -0.027949445 -0.041514661
-0.058166172 -0.019988952 -0.041644614
-0.051904693 -0.019957019 -0.041754156
-0.043927584 -0.019984741 -0.041772593
-0.035895724 -0.019944822 -0.04175384
-0.027931098 -0.019979633 -0.04173819
-0.019976577 -0.019888241 -0.041729342
-0.01207435 -0.02001581 -0.041735053
-0.0040014884 -0.019942632 -0.041732945
0.0040366915 -0.019952148 -0.041704591
0.011938152 -0.019964842 -0.04171028
0.019917194 -0.019960051 -0.041701872
0.027989872 -0.019924745 -0.041693285
0.035921033 -0.01998339 -0.041703396
0.044015951 -0.019944116 -0.041671649
0.052059643 -0.019965654 -0.041683216
0.058506113 -0.020045517 -0.041534502
-0.0582189 -0.011898731 -0.041624021
-0.051936753 -0.011885582 -0.041755646
-0.043952536 -0.011884918 -0.041772023
-0.035923533 -0.011948239 -0.041741591
-0.027920954 -0.011842076 -0.04174656
-0.019984933 -0.011906484 -0.04173249
-0.012024825 -0.011857109 -0.04173217
-0.0040389621 -0.011926915 -0.041728679
0.0040648673 -0.011884128 -0.041712336
0.012037172 -0.01185589 -0.041711386
0.020040879 -0.01189243 -0.041694179
0.028034102 -0.011899457 -0.041695241
0.035921726 -0.011889354 -0.04169742
0.04401198 -0.011861906 -0.041683987
0.052036516 -0.011920515 -0.041679427
0.058504026 -0.011939283 -0.041573618
-0.058226883 -0.0039386125 -0.041648742
-0.051947396 -0.003904264 -0.041752454
-0.043930292 -0.0039105359 -0.041773055
-0.035968456 -0.0039253593 -0.041740939
-0.028029108 -0.0039381217 -0.041749533
-0.020031596 -0.0038487662 -0.041732527
-0.012056932 -0.0039202399 -0.041735835
-0.0040570935 -0.0039238869 -0.041731443
0.0040382808 -0.0039267577 -0.041702338
0.011964028 -0.0038489406 -0.041712128
0.01988796 -0.0039056789 -0.041699015
0.027983934 -0.0039079008 -0.041692302
0.035959706 -0.0038884813 -0.041692372
0.043949056 -0.0039075222 -0.041680165
0.052017219 -0.0039296132 -0.041677278
0.05850878 -0.0039771022 -0.041559059
-0.05829414 0.0039801975 -0.041581951
-0.051963251 0.0040022521 -0.041757315
-0.043964762 0.0039896434 -0.041774366
-0.03599067 0.003996884 -0.041746173
-0.028012544 0.0040189424 -0.041741833
-0.020081835 0.0039898218 -0.041729685
-0.012166296 0.0040220241 -0.041736182
-0.0040984266 0.003990815 -0.041728869
0.0039619287 0.0040121721 -0.041710999
0.012061513 0.0040413993 -0.041705657
0.020077702 0.0039920253 -0.041697547
0.028011419 0.0039800382 -0.041690368
0.035907686 0.0040283669 -0.041702911
0.043955434 0.003982198 -0.041674182
0.051994104 0.0039908774 -0.041675579
0.058471262 0.0039257933 -0.041577645
-0.058284961 0.01201102 -0.041604079
-0.051927313 0.011973212 -0.041752245
-0.043915272 0.011995791 -0.041774627
-0.03597445 0.012008134 -0.041737638
-0.028029548 0.012029554 -0.041745417
-0.0200369 0.012007943 -0.04172476
-0.012091335 0.011988623 -0.041734781
-0.0041039279 0.011987858 -0.041728087
0.0040062079 0.012034916 -0.041701809
0.011966042 0.01197094 -0.04171624
0.019907592 0.011972805 -0.041700829
0.027984545 0.012008278 -0.041693527
0.035945769 0.012042652 -0.041695565
0.043972362 0.0119843 -0.041681003
0.05205328 0.012014019 -0.041676283
0.058551755 0.011970109 -0.041551743
-0.058378231 0.019981066 -0.041556872
-0.051949754 0.019942516 -0.041755598
-0.043923534 0.020011023 -0.041767284
-0.035921689 0.020006424 -0.041746356
-0.02794975 0.019958159 -0.041741338
-0.019986844 0.02002017 -0.041732427
-0.012023079 0.019958183 -0.041729014
-0.0040318058 0.019979926 -0.041729331
0.0040350626 0.019993238 -0.041705493
0.012010097 0.019995429 -0.041708417
0.020014938 0.019964341 -0.041692737
0.028029652 0.020000825 -0.041690957
0.035909381 0.01999522 -0.041698527
0.043963008 0.019987693 -0.041676302
0.052034989 0.020026153 -0.041674271
0.058501102 0.019903425 -0.041568812
-0.058293197 0.028026875 -0.041600943
-0.05185603 0.02800883 -0.041745242
-0.043910287 0.0280557 -0.041771591
-0.035898544 0.028058784 -0.041745044
-0.02795656 0.028053205 -0.04174329
-0.019983338 0.0280685 -0.04172641
-0.012054804 0.028034734 -0.041732538
-0.0040504802 0.028065233 -0.041724879
0.0040678764 0.028030796 -0.04170851
0.011974832 0.028054802 -0.041705236
0.01992967 0.028071037 -0.041699775
0.02800129 0.028073942 -0.041693203
0.035919458 0.028027305 -0.04169324
0.043998264 0.028067317 -0.041676946
0.052031156 0.028035248 -0.041677438
0.058527354 0.028017817 -0.041546721
-0.058380224 0.036033649 -0.041542932
-0.051943608 0.035998691 -0.041757494
-0.043932803 0.036021754 -0.041769695
-0.035877962 0.036003571 -0.041746043
-0.02790503 0.036001649 -0.041737042
-0.020117445 0.036069516 -0.041726496
-0.012178286 0.036038559 -0.041731995
-0.0040146485 0.036021773 -0.041726045
0.0040792371 0.036053408 -0.041701656
0.012031723 0.036011565 -0.041712075
0.019995613 0.035992928 -0.041698061
0.027998582 0.036067173 -0.041687973
0.035964739 0.035987537 -0.041690685
0.044085711 0.036011096 -0.041675184
0.052101109 0.035999034 -0.041677844
0.058553677 0.036010943 -0.041509576
-0.058249157 0.042978972 -0.041461308
-0.051954497 0.043093514 -0.041560385
-0.044076875 0.043107182 -0.041585065
-0.035969131 0.043105569 -0.041548561
-0.028028056 0.043101534 -0.041550472
-0.019955575 0.043106385 -0.041531391
-0.011965607 0.043152444 -0.041537877
-0.0039733364 0.043084234 -0.041539125
0.0041029868 0.043106701 -0.041524883
0.012092878 0.043089628 -0.04151573
0.020021221 0.04310995 -0.041503146
0.027984256 0.043074008 -0.041511837
0.036020346 0.04308996 -0.041517548
0.044030637 0.043086093 -0.041495573
0.052097909 0.043091316 -0.04150492
0.058443118 0.043133911 -0.041426383
-0.059101332 -0.04359927 -0.036041372
-0.052052829 -0.044956505 -0.036120251
-0.043983907 -0.044956133 -0.036182426
-0.035960633 -0.044955723 -0.036010779
-0.02802735 -0.044955228 -0.036216613
-0.020056723 -0.044956423 -0.036065605
-0.012057501 -0.044955388 -0.036153622
-0.004189434 -0.044954605 -0.036143079
0.0039294269 -0.044956002 -0.036063764
0.011970672 -0.044955313 -0.036112491
0.020067027 -0.044955526 -0.036167819
0.028045498 -0.044956144 -0.036061257
0.035884734 -0.044955149 -0.036158156
0.043891657 -0.044955928 -0.036004242
0.051873811 -0.044956535 -0.036175087
0.059139851 -0.043549582 -0.035993136
-0.059917871 -0.035946194 -0.036064021
0.060078613 -0.035882436 -0.036065087
-0.059900343 -0.027936522 -0.035925437
0.060089983 -0.028032018 -0.035969973
-0.059901085 -0.019962419 -0.035980396
0.060092568 -0.020038551 -0.036106002
-0.059891053 -0.012014224 -0.036199197
0.060081758 -0.011977741 -0.03612265
-0.059910245 -0.003980991 -0.03606049
0.06009623 -0.0040200395 -0.036190487
-0.059896994 0.0038938646 -0.035887484
0.060098 0.0038586576 -0.035994213
-0.059904255 0.011917989 -0.036043391
0.060091775 0.011953067 -0.036140472
-0.059906818 0.020132827 -0.036343064
0.060098443 0.02006636 -0.036047574
-0.059898801 0.028151833 -0.036274541
0.060089681 0.028011492 -0.036147989
-0.059896614 0.036054146 -0.036186118
0.060081709 0.036029488 -0.0359721
-0.058775999 0.043912344 -0.036012389
-0.05199454 0.0450367 -0.036060881
-0.043976057 0.045036025 -0.036051221
-0.036031961 0.045037322 -0.036042582
-0.028054442 0.045036931 -0.036066383
-0.020047022 0.045036439 -0.036006153
-0.012024579 0.045037206 -0.036115568
-0.0039794077 0.045036938 -0.03596912
0.0040132427 0.045037258 -0.03614226
0.011991884 0.045036729 -0.035997439
0.020008232 0.045037419 -0.03606144
0.027932115 0.045037299 -0.036044363
0.035934702 0.045036547 -0.036033593
0.04407173 0.045037355 -0.03605007
0.052071758 0.045036688 -0.036056254
0.059019316 0.043919027 -0.036007162
-0.059102915 -0.043593355 -0.028078727
-0.0519851 -0.044956464 -0.02807175
-0.044018477 -0.044955287 -0.028031904
-0.036072213 -0.044956196 -0.028122673
-0.028078241 -0.044955406 -0.02799787
-0.019934934 -0.044955511 -0.02804295
-0.011895611 -0.044954982 -0.028107554
-0.004015388 -0.044955425 -0.027959712
0.0039809593 -0.044955116 -0.028093081
0.011968676 -0.044955287 -0.028020896
0.020070935 -0.044956043 -0.027980324
0.02810098 -0.044954896 -0.028188538
0.035973184 -0.044955306 -0.027901553
0.043882877 -0.044956435 -0.028083092
0.051882226 -0.044955693 -0.028127577
0.059106305 -0.043509439 -0.027912609
-0.059915219 -0.03597134 -0.028130118
0.060092695 -0.035946403 -0.028001681
-0.059911385 -0.027833018 -0.028022269
0.06007861 -0.028134977 -0.027982824
-0.059916068 -0.019909313 -0.02780614
0.060078647 -0.019998742 -0.028132999
-0.059903987 -0.01194449 -0.028202038
0.060074676 -0.011875335 -0.02792348
-0.05989733 -0.004083144 -0.028015547
0.060088571 -0.004108971 -0.028193207
-0.059908029 0.0038769583 -0.027917286
0.060084943 0.0037486618 -0.027767675
-0.059902724 0.011894745 -0.02797156
0.060085762 0.012033483 -0.028092053
-0.059896659 0.019954558 -0.028205302
0.060078561 0.020143401 -0.028050246
-0.059897374 0.028038671 -0.027871288
0.06008279 0.028007664 -0.028019095
-0.059899837 0.036082759 -0.02798219
0.060085587 0.035923705 -0.02809231
-0.058741461 0.043986924 -0.028008636
-0.051993888 0.04503841 -0.028017294
-0.043953981 0.04503746 -0.028073067
-0.035986479 0.045037981 -0.028023902
-0.028098859 0.045038581 -0.028094057
-0.020021753 0.045037642 -0.028024483
-0.012019275 0.04503886 -0.028068988
-0.0039562318 0.045037653 -0.028051063
0.0040776264 0.045039266 -0.028098516
0.012019579 0.045037389 -0.028032489
0.020057928 0.045038965 -0.028067246
0.027932048 0.045038436 -0.028028695
0.035990775 0.045037888 -0.028079547
0.044052925 0.045038678 -0.028023666
0.052096535 0.045037426 -0.02804593
0.059008904 0.043875527 -0.028016888
-0.059065469 -0.043633983 -0.020000592
-0.05199708 -0.044955973 -0.020056304
-0.043968529 -0.044956692 -0.019936621
-0.036014769 -0.044955045 -0.019919422
-0.028194316 -0.044955745 -0.020001443
-0.019948376 -0.044955622 -0.019926265
-0.011918494 -0.044954449 -0.019845469
-0.0040346989 -0.044955865 -0.020029975
0.0039580353 -0.044954617 -0.019883631
0.011908449 -0.044955738 -0.01997849
0.020134995 -0.044955686 -0.019881891
0.028108826 -0.044954807 -0.019935524
0.035968769 -0.044956293 -0.019973634
0.043848507 -0.044955261 -0.019917702
0.051759981 -0.044956606 -0.020024994
0.05912609 -0.04358808 -0.019869274
-0.0599177 -0.035979159 -0.020077551
0.060056161 -0.035948567 -0.019833058
-0.059925422 -0.02793018 -0.020081326
0.060081434 -0.02800126 -0.019815439
-0.059937138 -0.020008439 -0.020004256
0.060073778 -0.020005345 -0.019997653
-0.05991606 -0.012071897 -0.020199724
0.060082249 -0.011916248 -0.01992283
-0.059920222 -0.0041030296 -0.020034486
0.060081374 -0.0041085752 -0.019959562
-0.059936099 0.0038734816 -0.02015323
0.060072608 0.0037271748 -0.01977645
-0.059911534 0.011904445 -0.020007936
0.060064014 0.011978432 -0.019961324
-0.059918068 0.020055456 -0.020180229
0.060074542 0.019975565 -0.019860091
-0.059926763 0.028203124 -0.02003538
0.060077693 0.028102206 -0.019970013
-0.059916131 0.036157962 -0.020084009
0.060080796 0.036138441 -0.019916182
-0.058783889 0.043947421 -0.020070093
-0.051985629 0.045037109 -0.019980747
-0.04400849 0.0450367 -0.019982183
-0.035982478 0.04503734 -0.020007711
-0.028026426 0.045037955 -0.019979497
-0.019984633 0.045036953 -0.020041445
-0.011927919 0.04503819 -0.019998385
-0.0039448142 0.045036867 -0.020039709
0.0040383805 0.045038141 -0.019999433
0.01201501 0.045037106 -0.020057226
0.020027507 0.045038089 -0.019966425
0.027929666 0.045037676 -0.020009968
0.035955142 0.045037355 -0.020017739
0.044064857 0.045037266 -0.019998182
0.05209158 0.045037162 -0.019993298
0.058974274 0.043957263 -0.019902505
-0.059099697 -0.043591242 -0.012198118
-0.052033428 -0.044956364 -0.011994582
-0.043945614 -0.044955406 -0.012165762
-0.035997413 -0.044956185 -0.011959682
-0.028032586 -0.044955697 -0.012153435
-0.020009335 -0.044955779 -0.012049642
-0.011984882 -0.044955853 -0.012032418
-0.0041546221 -0.044954438 -0.012132355
0.0039473954 -0.04495652 -0.012034108
0.012022504 -0.044954952 -0.012082065
0.019978127 -0.044956099 -0.012006055
0.028040487 -0.044955555 -0.012079353
0.035833534 -0.044955391 -0.012142142
0.043874413 -0.044956531 -0.011948697
0.05185581 -0.044956088 -0.012250868
0.059114933 -0.04353071 -0.011927761
-0.059953965 -0.036015045 -0.012083776
0.060059104 -0.035930894 -0.011836029
-0.05996082 -0.027960738 -0.012208761
0.060051039 -0.028039472 -0.011941338
-0.059930939 -0.019893605 -0.012093147
0.060062908 -0.020082314 -0.011976596
-0.059938576 -0.011994095 -0.012126775
0.060063556 -0.011949398 -0.011814239
-0.059954308 -0.0040770764 -0.012125126
0.060056511 -0.004181141 -0.011840628
-0.059923943 0.0038586161 -0.012191531
0.060058013 0.0037363828 -0.011944962
-0.059956554 0.011937643 -0.012068945
0.060048103 0.011997335 -0.011926332
-0.059945926 0.020246826 -0.012211475
0.060068984 0.019997079 -0.011742501
-0.059917532 0.028211238 -0.012085109
0.060056709 0.028064651 -0.011874146
-0.059944209 0.036091696 -0.012208506
0.060058702 0.035988063 -0.011974663
-0.05879914 0.043977264 -0.01209522
-0.051970933 0.045038272 -0.012034641
-0.043962743 0.045037515 -0.012001188
-0.03602241 0.045038629 -0.012056117
-0.028031191 0.045038376 -0.011978405
-0.020066114 0.045038119 -0.012030939
-0.012025993 0.045038652 -0.012048938
-0.0039495244 0.045038469 -0.012043671
0.0039938074 0.045038596 -0.012017611
0.012008603 0.045038417 -0.012095226
0.020080147 0.045038693 -0.01200421
0.02796514 0.04503892 -0.012061413
0.035938021 0.045037929 -0.011977321
0.044073801 0.04503857 -0.012067329
0.052025907 0.04503794 -0.011998245
0.058947392 0.043984961 -0.011888496
-0.059065942 -0.043687992 -0.0041261236
-0.052035969 -0.044956189 -0.0039539579
-0.043943081 -0.044955302 -0.0041164369
-0.036060978 -0.044955101 -0.0039942292
-0.02802103 -0.044955306 -0.0041852826
-0.019934297 -0.04495497 -0.003932232
-0.012034485 -0.044954434 -0.0041813469
-0.0041434746 -0.04495487 -0.0039627054
0.0038307526 -0.044954278 -0.0041484041
0.011902592 -0.04495525 -0.003982306
0.020041816 -0.044955123 -0.0041008694
0.028042749 -0.044954576 -0.0040045837
0.035916984 -0.044955354 -0.0040673865
0.043901898 -0.044955455 -0.0040618405
0.051798578 -0.04495516 -0.0040995558
0.059069026 -0.043505672 -0.003952669
-0.059974782 -0.035951924 -0.0039677117
0.060045432 -0.035860572 -0.0039662742
-0.059933435 -0.027848376 -0.0041018627
0.060060907 -0.028013838 -0.0040378622
-0.059968229 -0.019988304 -0.0039940653
0.060050331 -0.020101545 -0.0040362515
-0.059960924 -0.011880282 -0.0040515866
0.060038518 -0.012006109 -0.0040052379
-0.059938531 -0.0040121945 -0.0039826641
0.060043752 -0.0040618535 -0.0039040679
-0.059949461 0.0038905004 -0.0040701786
0.060066503 0.0038673552 -0.0040030014
-0.059944294 0.012035866 -0.0039479206
0.060044557 0.011947428 -0.0039563663
-0.059953365 0.020016246 -0.0040784795
0.060037084 0.019926991 -0.003874378
-0.059947435 0.028183453 -0.0039571798
0.060049571 0.028101018 -0.0039782729
-0.059947457 0.036116853 -0.0040757875
0.060063474 0.036045816 -0.0039734761
-0.058756508 0.043968149 -0.0039649508
-0.051987238 0.045038387 -0.0039462121
-0.044016756 0.045037519 -0.0040020435
-0.036029071 0.045038562 -0.0039574523
-0.028084619 0.04503838 -0.0039752992
-0.020007215 0.045038097 -0.0039296611
-0.0119983 0.045038585 -0.0040128464
-0.0039327797 0.045038261 -0.0039307801
0.0040269727 0.045038942 -0.0040313597
0.012012864 0.045038264 -0.0039231642
0.019995676 0.045038655 -0.0040049516
0.027905311 0.045038927 -0.0039415844
0.035924509 0.045037899 -0.0039462084
0.044044625 0.045038708 -0.0040073171
0.052067038 0.045037743 -0.0039660973
0.058944926 0.043974783 -0.0039978456
-0.059090037 -0.04359328 0.0040932694
-0.051984515 -0.044956423 0.0040732864
-0.0439068 -0.044956099 0.0038748274
-0.035973012 -0.044956435 0.0041161687
-0.028112063 -0.044955391 0.0038877905
-0.019908294 -0.04495636 0.0040728073
-0.011891157 -0.044954997 0.0039813314
-0.0040876665 -0.044956073 0.003942268
0.003922815 -0.04495541 0.0041098045
0.011794753 -0.044956125 0.0040012649
0.020113967 -0.044955645 0.0039643697
0.028025998 -0.044955634 0.0041103321
0.035992987 -0.044955939 0.0039305114
0.04384451 -0.04495639 0.004030128
0.051820539 -0.044956632 0.0039604758
0.059079371 -0.043533653 0.0039217579
-0.059958667 -0.036006413 0.0041072755
0.060043514 -0.035936091 0.003935785
-0.059980635 -0.027930021 0.0041384939
0.060030453 -0.028146775 0.0039775684
-0.059942793 -0.019980242 0.0041978611
0.060038764 -0.020050487 0.0040479717
-0.059975348 -0.011899072 0.0040380917
0.060046751 -0.011901164 0.0038816629
-0.0599453 -0.0040573301 0.0043159793
0.060050491 -0.0039599766 0.0039754598
-0.059960883 0.0038713228 0.0039795092
0.060023941 0.0038640469 0.0039965333
-0.059955865 0.011845979 0.0041806921
0.060037557 0.012032806 0.0039891023
-0.059942693 0.019996494 0.0040623341
0.060040031 0.02016617 0.0039117956
-0.05995658 0.028163701 0.0041317292
0.060035776 0.028005978 0.0039900905
-0.059952982 0.036108021 0.0041668741
0.060048979 0.036023386 0.0039936411
-0.058792401 0.04395555 0.0040172939
-0.052001111 0.045038175 0.0041240808
-0.0440556 0.045037456 0.0039739204
-0.036016371 0.045038473 0.0040546134
-0.028075796 0.045038488 0.0040346705
-0.020022249 0.045037795 0.0041044881
-0.011964697 0.04503883 0.0040020254
-0.0038960483 0.04503781 0.0040800883
0.0039989492 0.045038715 0.0039751655
0.0119575 0.045038186 0.0041189394
0.020056928 0.04503864 0.0039754962
0.027938154 0.045038827 0.0041058376
0.036030505 0.045037825 0.0040404866
0.044038299 0.045038719 0.0040291725
0.052031484 0.045037519 0.0040086317
0.058935177 0.043931369 0.0040076477
-0.059116393 -0.043724999 0.011977756
-0.052059978 -0.044956602 0.012015364
-0.043965843 -0.044955339 0.012033026
-0.036113329 -0.04495592 0.011938594
-0.028103236 -0.044955339 0.011996984
-0.020011768 -0.044955764 0.011938203
-0.011924214 -0.044954859 0.012143623
-0.004040306 -0.044955377 0.011821971
0.0039725518 -0.044955309 0.012151404
0.012038684 -0.044955011 0.011797369
0.020103512 -0.044955991 0.012152211
0.028082874 -0.044955242 0.011914747
0.035926625 -0.0449556 0.011972255
0.043908086 -0.044956293 0.011947955
0.051899549 -0.044955816 0.012085105
0.059035271 -0.043539818 0.011890108
-0.059984528 -0.035935197 0.01203219
0.060014628 -0.035798952 0.012105798
-0.060005877 -0.027860994 0.012035852
0.060029928 -0.028117897 0.012067428
-0.059975941 -0.019940222 0.012060227
0.060013708 -0.020010475 0.012091194
-0.060005605 -0.012061877 0.012008701
0.060008183 -0.011776356 0.01208586
-0.059975471 -0.0040143752 0.012063733
0.060033273 -0.0039315391 0.012110103
-0.06000318 0.004159925 0.012001733
0.060016561 0.0038370732 0.01203407
-0.059978336 0.012002956 0.012018054
0.060019489 0.012076547 0.012096148
-0.060008619 0.02015974 0.012014305
0.060026843 0.020099647 0.012027597
-0.059961423 0.028138189 0.011942512
0.060013723 0.028101409 0.012088038
-0.059997741 0.036165811 0.01213879
0.060018007 0.036068309 0.012021517
-0.058723722 0.044081278 0.011906771
-0.051953014 0.045038991 0.01199968
-0.043951172 0.045038793 0.011973917
-0.036019485 0.045039225 0.011972519
-0.028069308 0.045039605 0.012060374
-0.020079274 0.045038804 0.011954933
-0.012010073 0.045040276 0.011974689
-0.0039139148 0.04503889 0.011998057
0.00401353 0.045040008 0.011969624
0.011971693 0.045038983 0.012053599
0.020059731 0.045040317 0.011959503
0.027943362 0.045039501 0.01196909
0.035952169 0.045039155 0.01202918
0.044025134 0.045039557 0.011998414
0.05200243 0.045038927 0.011925117
0.058963776 0.043909326 0.012059932
-0.059060875 -0.043709949 0.02020273
-0.051977493 -0.044957712 0.019892134
-0.043969657 -0.044956375 0.020211762
-0.035989325 -0.044956259 0.019781852
-0.028056698 -0.044956289 0.01993815
-0.019928383 -0.044956334 0.019791771
-0.011964416 -0.044956043 0.020050991
-0.0041076066 -0.044955581 0.019930691
0.0038416889 -0.044956863 0.019950101
0.011887413 -0.04495563 0.019901413
0.020011229 -0.044957045 0.020077739
0.028058464 -0.044955492 0.019796817
0.035920821 -0.044956673 0.019897103
0.043885745 -0.044956319 0.01978286
0.051835295 -0.044956904 0.020238083
0.05899201 -0.043627251 0.019850019
-0.060003094 -0.036049265 0.020123996
0.060005207 -0.035941262 0.020054752
-0.059982773 -0.027976966 0.020068439
0.060001075 -0.028019598 0.02006615
-0.059995607 -0.019944631 0.020083629
0.060020894 -0.020106789 0.020024093
-0.059970301 -0.012003936 0.020084053
0.060012542 -0.011914751 0.020055143
-0.060003486 -0.0039923787 0.020028448
0.060009245 -0.0039774533 0.020042818
-0.05997486 0.0040539028 0.020140732
0.060018197 0.003870999 0.01996794
-0.059988819 0.012027725 0.020059574
0.059988812 0.012026096 0.0200259
-0.059980121 0.020082751 0.020099824
0.060010947 0.020009935 0.02012066
-0.059981842 0.028155662 0.020053249
0.060018804 0.028004674 0.020041673
-0.059976634 0.036067851 0.020066783
0.06001116 0.035983067 0.020008834
-0.058760274 0.043971222 0.020072415
-0.051974464 0.045038089 0.020066187
-0.043981239 0.045037504 0.020030778
-0.036009435 0.045038335 0.020034155
-0.028031558 0.045038626 0.020207303
-0.020020232 0.045037936 0.020044254
-0.011973403 0.045038678 0.020075029
-0.0039688647 0.04503784 0.020045195
0.0040195375 0.045038838 0.020072361
0.011980643 0.045037977 0.020142883
0.020035854 0.04503867 0.020004801
0.027943108 0.045038987 0.020043099
0.035912756 0.045037892 0.020198548
0.044079728 0.0450387 0.020036025
0.052093059 0.045037884 0.020038554
0.058922458 0.04394972 0.020115213
-0.059098724 -0.043694664 0.028131574
-0.051974665 -0.0449562 0.027886113
-0.044025481 -0.044956125 0.02803177
-0.036053937 -0.044955745 0.027799511
-0.02814566 -0.04495623 0.027853487
-0.019952629 -0.044955902 0.02785732
-0.012077692 -0.044955462 0.0277908
-0.0040566763 -0.044955302 0.027960973
0.0039153225 -0.044955626 0.02783777
0.011917345 -0.044955291 0.027968748
0.020059651 -0.044956248 0.0277828
0.028019432 -0.04495525 0.027940216
0.035967898 -0.04495652 0.027781127
0.043916911 -0.044956032 0.027859548
0.051839203 -0.044956677 0.027998302
0.059012629 -0.043585252 0.02785123
-0.060019713 -0.035857242 0.028103819
0.059987899 -0.035938308 0.027794594
-0.06000226 -0.027939945 0.028151695
0.059983566 -0.028003944 0.027883561
-0.060012195 -0.019974567 0.028057538
0.059992183 -0.020039378 0.027883738
-0.060012132 -0.011957527 0.028222425
0.059998158 -0.011965891 0.027807524
-0.060001127 -0.0039103669 0.028063171
0.059973624 -0.0040058587 0.027828071
-0.060010843 0.0041185054 0.028111544
0.060000949 0.0039812806 0.027794847
-0.059996352 0.01203764 0.028046593
0.059985958 0.012074193 0.027900359
-0.060011234 0.020122433 0.028136954
0.059987098 0.020022407 0.027883761
-0.059997927 0.028080853 0.028078524
0.060004029 0.028066816 0.027834641
-0.060007736 0.036111437 0.028125629
0.059971835 0.03602038 0.027910911
-0.058796868 0.043998733 0.028087616
-0.051951043 0.045038495 0.028001385
-0.043991309 0.045037828 0.027972138
-0.035988145 0.045038622 0.02798049
-0.028057147 0.045038678 0.028076392
-0.019981055 0.045038145 0.027949573
-0.012017683 0.045038853 0.028015751
-0.0040005497 0.045038357 0.027982127
0.0040264605 0.045039199 0.027998274
0.012046357 0.045038499 0.028011393
0.020057613 0.045039173 0.027987709
0.027910281 0.045038983 0.027937103
0.035976298 0.045038193 0.02812265
0.044047758 0.045038763 0.027944084
0.052049048 0.045038145 0.02797652
0.058933616 0.043980177 0.027983489
-0.059082545 -0.043660045 0.036005225
-0.051907014 -0.044957049 0.036056623
-0.043928884 -0.044956572 0.035983484
-0.036022879 -0.044956628 0.035927959
-0.028031792 -0.044956062 0.035870694
-0.019863179 -0.04495658 0.036062174
-0.011928317 -0.044956144 0.03593418
-0.0040644943 -0.044956136 0.036097705
0.0039026989 -0.044956625 0.035863422
0.011913393 -0.044956323 0.036170084
0.020007083 -0.04495699 0.035821371
0.028010912 -0.044955805 0.036197543
0.035876654 -0.044956401 0.035802897
0.043860797 -0.044956647 0.036002155
0.051850658 -0.044956736 0.035885494
0.058965057 -0.043663729 0.035948511
-0.060008906 -0.036025971 0.036087744
0.059983443 -0.035966285 0.035935402
-0.060026191 -0.027839579 0.035954945
0.059985552 -0.028045097 0.035758127
-0.060012773 -0.019984648 0.036073409
0.059974756 -0.019946799 0.035830826
-0.060022879 -0.011898924 0.036020909
0.059973139 -0.011949797 0.035868663
-0.060014725 -0.0039013491 0.036044873
0.06000156 -0.0040749814 0.035749603
-0.060017314 0.0040615587 0.035986722
0.059973162 0.003963267 0.035882592
-0.060013264 0.012057188 0.036020461
0.059984118 0.012023913 0.03584484
-0.06001493 0.019973921 0.036050301
0.05997844 0.020043664 0.035784993
-0.060005039 0.028178679 0.036027212
0.059973758 0.028045645 0.035917617
-0.060009018 0.035950102 0.036050323
0.059993882 0.035935316 0.035769206
-0.058787104 0.044006635 0.035904035
-0.051991478 0.045038149 0.03597771
-0.043944247 0.045037884 0.035921372
-0.03600765 0.045038193 0.035935745
-0.028081367 0.045038439 0.035991956
-0.020043375 0.04503775 0.035883095
-0.011996691 0.045038655 0.0359587
-0.0039420719 0.045038 0.03601091
0.0040167542 0.045038942 0.036002081
0.011981636 0.045038 0.036012739
0.020072989 0.045038942 0.035926923
0.027996559 0.045038626 0.035916604
0.035970051 0.045037884 0.035983738
0.044091079 0.045038678 0.035901878
0.052063715 0.045037925 0.035972435
0.058936354 0.043942399 0.035884786
-0.059072051 -0.043771565 0.044097364
-0.052041538 -0.044957824 0.044098165
-0.043906469 -0.044956341 0.044173155
-0.036107048 -0.044957243 0.044086516
-0.028076829 -0.044956103 0.044032298
-0.020051282 -0.044957239 0.044141974
-0.011994329 -0.044955965 0.044121023
-0.0041205422 -0.044956237 0.044339687
0.0039665676 -0.044955902 0.04392365
0.01196868 -0.044956367 0.044309285
0.020109018 -0.044956472 0.0440231
0.028055342 -0.044957064 0.044331215
0.035908032 -0.044956192 0.04398752
0.043943096 -0.044957791 0.044078525
0.051765677 -0.04495677 0.044118788
0.058982298 -0.043567471 0.044164706
-0.060042746 -0.03592309 0.043984655
0.05994489 -0.035923347 0.043993492
-0.060016658 -0.027922336 0.04394462
0.059976488 -0.028023224 0.043884583
-0.060047392 -0.019911213 0.044075515
0.059952285 -0.020169511 0.044089515
-0.060023025 -0.012086441 0.043857165
0.059958816 -0.012019155 0.04397792
-0.060014233 -0.0040169298 0.044058941
0.059956178 -0.004055317 0.04392498
-0.060023036 0.0041170912 0.043926354
0.059948411 0.0038917388 0.044050477
-0.060026173 0.012020239 0.044106051
0.059970111 0.012041541 0.043975741
-0.06001199 0.020093288 0.043946218
0.059963252 0.01997233 0.043890804
-0.060024582 0.028092792 0.043966901
0.05995423 0.028071411 0.044093683
-0.060022406 0.036261398 0.043963078
0.059969384 0.036021765 0.043926306
-0.058783311 0.043977499 0.043909892
-0.051937517 0.045038331 0.044001769
-0.043960623 0.045037892 0.043902617
-0.035988573 0.045038451 0.043925904
-0.02809073 0.04503883 0.043961775
-0.020019475 0.045038458 0.043936387
-0.011937048 0.045038786 0.043933544
-0.0039703986 0.045038208 0.043971714
0.0040067364 0.045039117 0.044040229
0.012002595 0.045038451 0.043992721
0.020021213 0.04503883 0.043941639
0.027968839 0.04503943 0.043892998
0.035969738 0.045037951 0.044000749
0.044011768 0.04503886 0.043871276
0.052042194 0.045038119 0.043977879
0.0589251 0.043930762 0.043881916
-0.059114832 -0.043725222 0.052014571
-0.05199822 -0.044957981 0.051975902
-0.04406222 -0.044957601 0.052293327
-0.036004558 -0.044957861 0.05199939
-0.028024983 -0.044957198 0.052125111
-0.019994928 -0.044957738 0.052056912
-0.011955923 -0.044956408 0.052171148
-0.0040666731 -0.044957582 0.052151937
0.0038722593 -0.044957072 0.052054785
0.011850191 -0.044957481 0.052148145
0.020133825 -0.044957109 0.052112166
0.028042015 -0.04495744 0.052134544
0.035951585 -0.044957217 0.052110691
0.04392527 -0.04495807 0.051963609
0.051887486 -0.044957872 0.052295834
0.058936898 -0.043672428 0.052129347
-0.060046699 -0.035978965 0.052067794
0.059983052 -0.035916083 0.052076437
-0.060052771 -0.027912296 0.052098487
0.059943743 -0.028109612 0.052026153
-0.060050637 -0.019951258 0.052018195
0.059959844 -0.020019658 0.052171629
-0.060045261 -0.012029939 0.052059777
0.059978154 -0.011879524 0.052115887
-0.060045779 -0.0040408554 0.051994514
0.059946161 -0.0039292476 0.052056503
-0.060041372 0.004107133 0.052110299
0.059970383 0.0038717254 0.052206036
-0.060045522 0.012007889 0.052002743
0.059955094 0.012048766 0.052055091
-0.060033835 0.020043373 0.052040786
0.059966166 0.020115502 0.05204165
-0.060059723 0.028155291 0.052097935
0.059968088 0.028001118 0.052175969
-0.060028024 0.036145132 0.052027609
0.05994498 0.036073502 0.052139331
-0.058776874 0.044049893 0.051999915
-0.051969346 0.045038238 0.052007485
-0.044022944 0.045038175 0.051950287
-0.035959486 0.045038525 0.051943183
-0.028087111 0.045038871 0.052047912
-0.019992165 0.045038156 0.051966559
-0.01200847 0.045038994 0.051967323
-0.0039908104 0.045038279 0.052028324
0.0040079257 0.04503914 0.05202321
0.012005147 0.045038242 0.05202638
0.020011723 0.045039244 0.051961411
0.027916083 0.045039229 0.051977422
0.035976682 0.045038007 0.052043136
0.044049267 0.045039047 0.051927727
0.052080676 0.045038227 0.051989898
0.058924153 0.043972418 0.051922109
-0.05909602 -0.043709777 0.059984673
-0.052035406 -0.04495737 0.060045827
-0.043997962 -0.044958107 0.060103975
-0.036071379 -0.044956733 0.059948105
-0.028041167 -0.044957541 0.060085673
-0.01998066 -0.044957306 0.059969336
-0.011975469 -0.044956483 0.060098711
-0.0041016438 -0.044957299 0.059955157
0.0039418903 -0.044956524 0.060143389
0.011984348 -0.044957042 0.060034893
0.020059524 -0.044957269 0.060024768
0.028113376 -0.044956867 0.059990097
0.035965495 -0.044957668 0.060111113
0.044017483 -0.044957127 0.059943531
0.051834043 -0.044957835 0.060098439
0.058939982 -0.043639343 0.060001962
-0.060067188 -0.035921127 0.060181256
0.059916072 -0.035924032 0.060083177
-0.06006043 -0.027873253 0.060024485
0.059932236 -0.028107306 0.060051378
-0.060080137 -0.019913664 0.06013602
0.059953995 -0.02007138 0.060016837
-0.060057603 -0.011889908 0.06008869
0.059913769 -0.01178363 0.060200159
-0.060059264 -0.0039565954 0.060036138
0.059932083 -0.0040430916 0.060023814
-0.060074922 0.003944926 0.060085163
0.059928499 0.0038859358 0.060050335
-0.060048155 0.01196721 0.060082987
0.059942871 0.012117573 0.060041167
-0.060063899 0.020084338 0.060089946
0.059917074 0.02007756 0.060075533
-0.060051277 0.028255111 0.060174365
0.059947342 0.028101558 0.060070902
-0.060062278 0.036137007 0.060003158
0.059927341 0.036033522 0.060040213
-0.058863893 0.043978691 0.05999428
-0.051950045 0.045038417 0.060004611
-0.044006076 0.045037236 0.060038235
-0.036048807 0.045038689 0.059983686
-0.028064674 0.045038376 0.060095172
-0.020043286 0.045038074 0.06001205
-0.012017569 0.045038901 0.059960566
-0.0039201132 0.045038119 0.060090937
0.0040174834 0.045039099 0.059972361
0.011996838 0.045038186 0.060043909
0.020052599 0.045038864 0.060007192
0.027940832 0.045039017 0.06006147
0.035956681 0.045038052 0.060026497
0.044032514 0.045038819 0.060031943
0.052030444 0.045037426 0.060006093
0.058905214 0.043951966 0.06004126
-0.059053469 -0.043812927 0.068003356
-0.052011374 -0.044958737 0.068090953
-0.043973237 -0.044957902 0.068115473
-0.036031641 -0.04495804 0.068117328
-0.028029345 -0.04495836 0.068071231
-0.019991806 -0.044957303 0.06806577
-0.011866765 -0.044958163 0.068026096
-0.0040730671 -0.044957209 0.06815578
0.0038746977 -0.044958398 0.068114035
0.011863485 -0.044957157 0.06814301
0.019970361 -0.04495826 0.068084791
0.02805391 -0.044957362 0.068009578
0.035826404 -0.044957906 0.068125315
0.043863658 -0.04495839 0.06807109
0.051761128 -0.044958219 0.068167634
0.058932818 -0.043594431 0.068030797
-0.060066223 -0.036014564 0.067958705
0.0599235 -0.035908055 0.068045139
-0.060090356 -0.027850881 0.067955114
0.059911519 -0.027989872 0.068014055
-0.060064938 -0.019991221 0.068057761
0.059929594 -0.020056512 0.068009861
-0.060071949 -0.011973003 0.067911424
0.059924453 -0.012049532 0.06804347
-0.060076766 -0.0040591545 0.068078719
0.059920777 -0.004061088 0.068043016
-0.06007117 0.0038583712 0.067867436
0.059905611 0.0038932499 0.067977779
-0.060065188 0.011998681 0.068051457
0.059942957 0.011967285 0.067991585
-0.060071383 0.020075273 0.067910589
0.059925009 0.020013286 0.068065763
-0.060064383 0.02815892 0.068010263
0.059920505 0.028093621 0.068068422
-0.06007031 0.036089879 0.067952424
0.059915464 0.036075991 0.068041198
-0.058806814 0.043985412 0.067956544
-0.052037966 0.045038864 0.067938365
-0.044013817 0.045038383 0.067974769
-0.036067888 0.045039266 0.067970835
-0.028066795 0.045039304 0.067979604
-0.02005782 0.045038823 0.067959972
-0.011952042 0.045039464 0.067910902
-0.0039195414 0.045038849 0.067960978
0.0040295389 0.04503949 0.0678804
0.011993265 0.045039002 0.067981243
0.020045318 0.04503959 0.067891017
0.027954808 0.04503968 0.06796883
0.035954915 0.045038566 0.067953989
0.044099271 0.045039486 0.067998558
0.052046582 0.045038674 0.067977846
0.058875035 0.043990485 0.067932844
-0.059130821 -0.04368595 0.075869799
-0.051959626 -0.044958983 0.076129213
-0.044042878 -0.044959173 0.076062955
-0.036038984 -0.044958591 0.076109178
-0.028135477 -0.044958521 0.076027177
-0.020018836 -0.04495899 0.076058328
-0.012027307 -0.044958007 0.076066211
-0.0040680557 -0.044958152 0.076127715
0.0039108926 -0.044958442 0.075988196
0.0119343 -0.044958401 0.076196499
0.020121405 -0.044958647 0.076054476
0.028082959 -0.044958431 0.075979121
0.035947423 -0.044959005 0.076128826
0.043771107 -0.044958472 0.07598877
0.051752359 -0.044959795 0.076150417
0.058911242 -0.043645177 0.076075695
-0.060075104 -0.035980608 0.075984754
0.059921354 -0.035917755 0.075985529
-0.060061928 -0.027960993 0.075931393
0.059914183 -0.02817066 0.075856656
-0.060081255 -0.019861383 0.076015025
0.059909694 -0.020049104 0.075987905
-0.060070403 -0.011912447 0.075888932
0.059912663 -0.011985552 0.075982057
-0.06005298 -0.003990619 0.076033801
0.059899867 -0.0040914938 0.075975887
-0.060084831 0.0039240299 0.075896665
0.059930347 0.003707232 0.075860463
-0.06005929 0.011978699 0.07597357
0.059907269 0.011877397 0.075949743
-0.060058571 0.02016356 0.075880721
0.059905935 0.019972842 0.076020151
-0.060080424 0.028149355 0.075998247
0.059919041 0.0279721 0.075952858
-0.060049802 0.036120661 0.075934142
0.059911031 0.036018796 0.075906925
-0.058862504 0.043988254 0.076071046
-0.052010208 0.045037482 0.075992741
-0.044003099 0.045037132 0.076028101
-0.036002602 0.045037579 0.076063439
-0.028039539 0.045037825 0.075985014
-0.020007821 0.045037288 0.076005898
-0.012001414 0.045038451 0.076034151
-0.0039544543 0.045037247 0.076046951
0.0040230998 0.045038458 0.075987011
0.011948824 0.045037143 0.076017655
0.019989487 0.045038708 0.076030158
0.027916554 0.045038074 0.076057486
0.035934675 0.04503753 0.075976156
0.044010788 0.045037609 0.076021686
0.052042775 0.045037568 0.076060534
0.058906063 0.043913543 0.075929068
-0.059142504 -0.043749731 0.083890453
-0.052069157 -0.044959933 0.084061265
-0.044006284 -0.044958822 0.083873071
-0.036047883 -0.044958759 0.084066942
-0.028094672 -0.044958923 0.083947554
-0.019868994 -0.0449588 0.083975591
-0.011986267 -0.044958107 0.084095806
-0.0041042743 -0.044959202 0.083869018
0.0040220912 -0.044957869 0.084007137
0.011985973 -0.044959117 0.083954461
0.020036548 -0.04495883 0.084025383
0.027956367 -0.044958025 0.083959766
0.035966121 -0.044959262 0.083944909
0.04393794 -0.044958893 0.084040917
0.051834658 -0.044958979 0.083912283
0.058893327 -0.043579079 0.084042341
-0.060100086 -0.035891715 0.084075384
0.059898067 -0.035872262 0.083986267
-0.060106978 -0.027889375 0.083961479
0.059888188 -0.02805292 0.084001377
-0.060091041 -0.019907577 0.084065527
0.059900545 -0.020041052 0.083953999
-0.060105156 -0.011966964 0.084019884
0.059903543 -0.011947578 0.083985604
-0.060101405 -0.0041204346 0.084061116
0.059899639 -0.0041079153 0.084028386
-0.06009344 0.0038733135 0.083925195
0.059889559 0.0038024583 0.08390405
-0.060088094 0.011951019 0.084019884
0.059902068 0.011975819 0.084008276
-0.060101099 0.020106206 0.083989874
0.059903335 0.02000401 0.08398734
-0.060079925 0.028295863 0.084098205
0.059902266 0.028124152 0.084016435
-0.060092445 0.036200028 0.083943456
0.059893765 0.03601826 0.083915487
-0.058914006 0.043973368 0.084091008
-0.051980332 0.045038186 0.083979398
-0.043979265 0.045037508 0.084053874
-0.035939958 0.045038182 0.083989054
-0.028028714 0.045038689 0.084030211
-0.020054724 0.045037378 0.084005415
-0.011962784 0.045039013 0.084060512
-0.0039258422 0.045037575 0.083953828
0.0040094308 0.045039218 0.084061518
0.012007908 0.045037962 0.083940491
0.020119512 0.045038793 0.084077813
0.027984194 0.045038275 0.083997153
0.03596418 0.045038152 0.084042795
0.044094 0.045038667 0.083995275
0.05213863 0.045037452 0.084033974
0.058916986 0.043869626 0.08398173
-0.05906526 -0.043760471 0.091864742
-0.051962089 -0.044959784 0.091982849
-0.043965355 -0.044959214 0.091983207
-0.03602818 -0.044960432 0.091960177
-0.028056217 -0.044958711 0.091999806
-0.020018665 -0.0449594 0.091925189
-0.011938292 -0.044959348 0.091972455
-0.0041105193 -0.04495839 0.091934025
0.0039557884 -0.044959627 0.092067949
0.012026163 -0.04495861 0.091909416
0.020013316 -0.0449594 0.091980025
0.028090021 -0.044959724 0.091954023
0.035940014 -0.044958744 0.091970347
0.043878607 -0.04496026 0.09195967
0.051894456 -0.044959672 0.091947109
0.058910254 -0.043673225 0.092091702
-0.06012284 -0.035983428 0.092024222
0.059892051 -0.035946824 0.09195137
-0.060113441 -0.027865391 0.091951527
0.059897494 -0.028065469 0.09197893
-0.060124978 -0.020003645 0.091922015
0.059898842 -0.020064523 0.09197361
-0.060117327 -0.012065064 0.091992751
0.059895616 -0.011864419 0.091882214
-0.060114667 -0.0040848036 0.091995232
0.059888206 -0.0040096529 0.092001617
-0.060116008 0.0039254045 0.091808535
0.059898131 0.0037802563 0.091954723
-0.06011384 0.011798654 0.091993548
0.059901167 0.012023902 0.092031524
-0.060109064 0.019966463 0.09202332
0.059895337 0.020034822 0.091961578
-0.060115837 0.028082736 0.091942377
0.059899364 0.02799907 0.091948763
-0.060106661 0.036018159 0.091927201
0.059894454 0.035989612 0.091917343
-0.058864743 0.044005495 0.092014164
-0.051986847 0.045037501 0.091989212
-0.043968704 0.045035824 0.091971561
-0.036034916 0.045037787 0.091937833
-0.028101314 0.045037027 0.0919917
-0.020003945 0.045037128 0.091943271
-0.011986632 0.045037478 0.092038758
-0.0039677401 0.045037147 0.091896594
0.0040224488 0.045037922 0.09204533
0.012011503 0.045037076 0.091925927
0.020000562 0.045037489 0.092053369
0.027905656 0.045038041 0.091944069
0.035955623 0.045036562 0.091982707
0.044075951 0.045037739 0.091983557
0.052040793 0.045036443 0.091948897
0.058904793 0.043905511 0.091974974
-0.059109494 -0.043754831 0.10007028
-0.051958144 -0.044960354 0.10003396
-0.043883752 -0.044960435 0.10005707
-0.035992254 -0.044959206 0.09997496
-0.028022906 -0.044960197 0.10008232
-0.019938951 -0.044959359 0.10001837
-0.011934719 -0.044959139 0.099980183
-0.0040013096 -0.044959493 0.10007397
0.0039716135 -0.044959165 0.099983148
0.011947992 -0.044959661 0.10003233
0.020051366 -0.044959474 0.10003546
0.02806348 -0.044958971 0.10000188
0.036027592 -0.044960324 0.10008454
0.043982986 -0.04495937 0.099970981
0.05190178 -0.044960137 0.10002717
0.058966618 -0.04358305 0.10004398
-0.060110979 -0.035994198 0.10000037
0.059873953 -0.035880789 0.10012323
-0.060113661 -0.027867965 0.099963814
0.059869893 -0.027984889 0.10005492
-0.060118612 -0.019936819 0.099907652
0.059882067 -0.020052429 0.10006468
-0.060128059 -0.011935147 0.10015573
0.059876855 -0.011966931 0.10008615
-0.060116988 -0.0040434445 0.099992275
0.059880164 -0.0040790145 0.10001586
-0.060101729 0.00390648 0.099910468
0.059880931 0.0038073054 0.099979699
-0.060116187 0.011896943 0.099967524
0.059885122 0.01200713 0.1000275
-0.06010659 0.020111062 0.10010187
0.05987386 0.020056939 0.099915482
-0.060127642 0.028150268 0.099954687
0.059872635 0.028047746 0.10017196
-0.060099013 0.036131445 0.09995047
0.059873346 0.035981912 0.10006966
-0.058869898 0.043973204 0.10003641
-0.051937725 0.045037344 0.099979833
-0.043965742 0.045037474 0.099964604
-0.036049243 0.045037873 0.10000258
-0.028048513 0.045038186 0.09997499
-0.020004736 0.045037989 0.10002454
-0.012006507 0.045037836 0.099961102
-0.0039405264 0.045038365 0.099969834
0.0040888228 0.045038123 0.099973544
0.012060244 0.045038108 0.10000347
0.020026302 0.045038242 0.099968843
0.027934721 0.045038421 0.099986032
0.035936423 0.04503791 0.099987045
0.044064932 0.04503791 0.099965066
0.052048057 0.045037735 0.10001925
0.058889598 0.043887235 0.099969186
-0.058566779 -0.043168087 0.10724837
-0.051935483 -0.043455623 0.10750414
-0.044064175 -0.043415949 0.10749905
-0.036009315 -0.043393023 0.10753086
-0.028012661 -0.043429758 0.10750266
-0.020055385 -0.043426283 0.10753727
-0.012073968 -0.043398995 0.10754234
-0.0040816697 -0.043449935 0.10751168
0.0040039807 -0.043400161 0.10757057
0.012003568 -0.043436699 0.10752196
0.019989107 -0.043460917 0.10752796
0.027942099 -0.043399837 0.10760061
0.035897557 -0.043437589 0.10755572
0.043966934 -0.043424457 0.10757291
0.052039858 -0.043423984 0.10756219
0.058437932 -0.043244902 0.10717102
-0.058806054 -0.036028016 0.10754329
-0.051973615 -0.036022797 0.10825082
-0.043963969 -0.036030613 0.10823085
-0.035998583 -0.036015805 0.10825777
-0.028059164 -0.03602222 0.1082551
-0.020049231 -0.036031608 0.10827268
-0.012082898 -0.036014624 0.10826988
-0.0040721628 -0.036014881 0.1082712
0.0040883636 -0.03600046 0.10829362
0.012080721 -0.035984091 0.10828611
0.019991105 -0.036006022 0.10829931
0.028047834 -0.03605577 0.10831112
0.036019102 -0.036070399 0.10830742
0.044013135 -0.035994828 0.10831753
0.052020602 -0.036052138 0.10831764
0.058588397 -0.036032181 0.10762979
-0.058810271 -0.02796229 0.10753471
-0.051930573 -0.027910344 0.10824345
-0.043955542 -0.027961489 0.10823308
-0.035949845 -0.027931944 0.10825124
-0.027976338 -0.027931087 0.10825979
-0.020035643 -0.027925437 0.10826764
-0.012127612 -0.027938979 0.10826717
-0.0039916784 -0.027934659 0.10827064
0.0040783365 -0.027911542 0.10829195
0.011984843 -0.027968867 0.10829327
0.019980138 -0.027885921 0.10830479
0.027978266 -0.027913954 0.10830519
0.035960026 -0.027971119 0.10830888
0.044072356 -0.027951065 0.1083153
0.052114893 -0.027937587 0.10832313
0.058686789 -0.027999554 0.10756964
-0.058820318 -0.02000455 0.10754181
-0.051990114 -0.019960606 0.10823967
-0.043960754 -0.019973347 0.10823468
-0.035986371 -0.019965334 0.10825084
-0.02793684 -0.019952115 0.1082534
-0.020027518 -0.019979356 0.10827366
-0.012080126 -0.019969942 0.10826042
-0.0040398785 -0.019956226 0.10827224
0.0040389034 -0.01996211 0.10829403
0.012002962 -0.019953016 0.10828518
0.020009309 -0.019947058 0.10830326
0.028031012 -0.019974668 0.10830402
0.035965927 -0.019966116 0.10830875
0.044030059 -0.019964425 0.10831683
0.052092031 -0.019955086 0.1083232
0.05865429 -0.020040076 0.10761715
-0.058796786 -0.011886916 0.10761365
-0.051934656 -0.011924477 0.10824207
-0.043986872 -0.011911968 0.10823095
-0.036011212 -0.01188951 0.10825063
-0.027959364 -0.011931963 0.10825702
-0.019992705 -0.011885162 0.10826856
-0.012036346 -0.011906561 0.10826957
-0.0040408317 -0.011955902 0.10827013
0.0040360121 -0.011856112 0.10829141
0.011973838 -0.011888531 0.10828871
0.019873904 -0.011940502 0.10829648
0.027933687 -0.011816618 0.10830534
0.035964198 -0.011933058 0.10830977
0.044054322 -0.011897941 0.10831329
0.052054472 -0.011933092 0.10832357
0.058660205 -0.011948157 0.10753878
-0.058761615 -0.0038882028 0.10754978
-0.051913686 -0.0039141183 0.10823861
-0.043931291 -0.0039342907 0.10823315
-0.035955172 -0.0039594565 0.10825169
-0.02800105 -0.0038994772 0.10825398
-0.020097617 -0.0039378866 0.10826476
-0.012193196 -0.0039204289 0.10826394
-0.0041151359 -0.0039415723 0.10826544
0.0040032598 -0.0038609146 0.10828877
0.012014758 -0.0039481074 0.1082915
0.019991202 -0.0038395948 0.10830209
0.027949039 -0.0039519961 0.1083082
0.036014456 -0.003888367 0.10831478
0.044086739 -0.003961754 0.10830963
0.05208433 -0.003944566 0.10831998
0.058650471 -0.0039738966 0.10750984
-0.058775082 0.0039448976 0.107541
-0.051883463 0.0039895722 0.10824165
-0.043893959 0.0040313215 0.10823082
-0.035901964 0.0039853733 0.10825063
-0.027967129 0.0039772769 0.10825627
-0.020010248 0.0040019038 0.10826824
-0.011998335 0.0040009357 0.10825956
-0.0040241554 0.0040081562 0.10827109
0.0039629843 0.0039798068 0.10829078
0.011942665 0.003990544 0.10828286
0.019988827 0.0040372186 0.10830101
0.028099597 0.0039884844 0.10830189
0.036107741 0.0039691515 0.10831039
0.044084705 0.0040084161 0.10831157
0.052075837 0.0040267189 0.10832295
0.058685608 0.0038916646 0.10749128
-0.058801398 0.011947615 0.10750923
-0.051901836 0.011985862 0.10823788
-0.043905459 0.012046356 0.10822539
-0.035958827 0.012042416 0.10825338
-0.027973257 0.01197397 0.10825793
-0.020078486 0.011991092 0.1082632
-0.012169512 0.012002421 0.10826798
-0.0041392338 0.012009982 0.10826953
0.0039989697 0.011981895 0.10828739
0.012017076 0.011980715 0.10828583
0.020030875 0.011988997 0.10830014
0.028023198 0.011991826 0.10830551
0.036049597 0.011996352 0.10830477
0.044133823 0.012006708 0.10830977
0.052091319 0.012032527 0.10832139
0.058689684 0.011930658 0.10750236
-0.058788471 0.019950883 0.10759985
-0.051924836 0.019996641 0.10823931
-0.043892536 0.019995395 0.10822617
-0.035905153 0.019994719 0.10824863
-0.027995858 0.020014651 0.10825302
-0.020013077 0.019984059 0.10826821
-0.01202022 0.02000742 0.10826319
-0.0040314668 0.019952791 0.10826391
0.0040093446 0.019976219 0.10828829
0.011989227 0.019971516 0.10828879
0.019853262 0.020022575 0.10829192
0.027895818 0.019945661 0.10830273
0.035994906 0.020002974 0.10830846
0.044071205 0.019956596 0.10831179
0.052065711 0.019998409 0.10831818
0.058654957 0.019967329 0.10748849
-0.05881672 0.028061731 0.10753109
-0.05194864 0.028031357 0.10823905
-0.04395714 0.028025838 0.10823058
-0.035996594 0.028056359 0.10824981
-0.027951635 0.027991788 0.10824829
-0.020003337 0.028061237 0.10826799
-0.012106871 0.028083021 0.10826066
-0.0040872842 0.028023386 0.10827138
0.0040687551 0.0280551 0.10828884
0.012006436 0.028043414 0.10827863
0.019981382 0.028053591 0.10829742
0.028032381 0.028061301 0.10830411
0.035958268 0.028014369 0.10830727
0.044031788 0.028074047 0.10831209
0.052112654 0.028045351 0.10831858
