# .PCD v0.7 - Point Cloud Data file format
VERSION 0.7
FIELDS x y z
SIZE 4 4 4
TYPE F F F
COUNT 1 1 1
WIDTH 1351
HEIGHT 1
VIEWPOINT 0 0 0 1 0 0 0
POINTS 1351
DATA ascii
-0.10711896 -0.12633313 0.66864824
-0.096309662 -0.11930899 0.66697568
-0.12660813 -0.13431053 0.67010379
-0.18137424 -0.13256112 0.66615087
-0.09590295 -0.082709953 0.70632792
-0.19132175 -0.12834302 0.66413468
-0.18682468 -0.13044281 0.66511035
-0.11299109 -0.12933873 0.6692872
-0.21194692 -0.032723397 0.7007792
-0.2087951 -0.0318501 0.70373064
-0.16380817 -0.13690712 0.66867852
-0.17102543 -0.026511539 0.72360402
-0.20968986 -0.11596843 0.65888542
-0.14106627 -0.13721463 0.67018044
-0.10516409 -0.12533255 0.66843557
-0.17033605 -0.13578902 0.66790462
-0.2019399 -0.12211425 0.66140795
-0.12194549 -0.028540434 0.72232741
-0.14241454 -0.026604915 0.7261526
-0.1749644 -0.13469861 0.66725683
-0.17864262 -0.13362277 0.66667235
-0.11495095 -0.13034187 0.66950041
-0.13434593 -0.13627204 0.6702804
-0.10025704 -0.12232318 0.66773599
-0.18954353 -0.12938614 0.66459131
-0.21308003 -0.11291824 0.6576615
-0.093943566 -0.11610462 0.67060786
-0.12274077 -0.13333017 0.67001551
-0.16475353 -0.13689433 0.66861606
-0.20141624 -0.030084958 0.70979607
-0.11982577 -0.13233769 0.66986465
-0.19089402 -0.028299654 0.71623349
-0.097307928 -0.12031669 0.66724968
-0.14011648 -0.13722748 0.6702432
-0.11536413 -0.029487692 0.72011542
-0.12952572 -0.13530383 0.67025483
-0.20628703 -0.11902998 0.66011387
-0.1295922 -0.02758388 0.72446215
-0.17204352 -0.026508216 0.72351331
-0.18353921 -0.027401628 0.71967548
-0.10321045 -0.12433258 0.66822296
-0.20561665 -0.030969422 0.70670712
-0.1053674 -0.031353228 0.71546537
-0.12565711 -0.13432312 0.67016655
-0.141389 -0.02660826 0.72624391
-0.20370114 -0.1210811 0.66095573
-0.17127971 -0.13577636 0.66784227
-0.20886633 -0.11698409 0.65927416
-0.18504076 -0.1314889 0.66556829
-0.19580562 -0.12624937 0.66316187
-0.19757573 -0.12521064 0.66270721
-0.1823144 -0.13254878 0.66608888
-0.11691206 -0.13134564 0.6697138
-0.16569872 -0.13688156 0.66855365
-0.10984076 -0.030425375 0.71782756
-0.21226007 -0.11393023 0.65804887
-0.19403309 -0.12728952 0.66361713
-0.13916649 -0.13724032 0.67030591
-0.13339537 -0.1362848 0.67034316
-0.1993434 -0.12417333 0.66225314
-0.097517684 -0.033186648 0.71069986
-0.1759067 -0.13468605 0.6671946
-0.18776286 -0.13043068 0.66504854
-0.15252709 -0.13809235 0.66976726
-0.11008143 -0.12834822 0.66913658
-0.15347506 -0.13807945 0.66970468
-0.15157896 -0.13810527 0.66982996
-0.094363108 -0.11831313 0.66676408
-0.10812418 -0.12734626 0.66892362
-0.17306137 -0.026504895 0.72342265
-0.17958376 -0.13361031 0.66661024
-0.15442283 -0.13806653 0.66964203
-0.15063064 -0.13811819 0.66989261
-0.095357947 -0.10035051 0.69495988
-0.19225813 -0.12833111 0.66407311
-0.19717896 -0.029192729 0.7129122
-0.095925167 -0.083744191 0.70649153
-0.098306991 -0.12132522 0.6675238
-0.15537044 -0.13805361 0.66957939
-0.10125806 -0.12333328 0.66801059
-0.11203992 -0.12935081 0.66934973
-0.14968215 -0.13813113 0.66995531
-0.094680391 -0.11037869 0.6828714
-0.14036319 -0.026611608 0.72633529
-0.16664374 -0.13686877 0.66849124
-0.12857474 -0.13531649 0.67031759
-0.20110865 -0.12313744 0.66179973
-0.10616817 -0.12634493 0.66871071
-0.15631787 -0.13804071 0.6695168
-0.14873347 -0.13814403 0.67001796
-0.17222321 -0.1357637 0.66778004
-0.13821636 -0.13725318 0.67036873
-0.21143909 -0.1149434 0.6584366
-0.1217895 -0.13334265 0.67007828
-0.1009234 -0.032274995 0.71311873
-0.1209228 -0.028544007 0.72241783
-0.20545995 -0.12004935 0.66050404
-0.15726513 -0.1380278 0.66945422
-0.14778462 -0.13815695 0.6700806
-0.20804185 -0.11800095 0.65966338
-0.11399968 -0.13035406 0.66956306
-0.18455023 -0.027398214 0.71958578
-0.11887442 -0.13235007 0.6699273
-0.12856743 -0.027587341 0.72455305
-0.13244462 -0.13629755 0.67040586
-0.1247059 -0.1343357 0.67022932
-0.19048072 -0.12937413 0.66452962
-0.1582122 -0.1380149 0.66939163
-0.1468356 -0.1381699 0.67014337
-0.095360234 -0.11932009 0.66703779
-0.10421342 -0.12534425 0.66849798
-0.19189928 -0.028296141 0.71614462
-0.17407896 -0.026501572 0.72333199
-0.16758858 -0.136856 0.66842884
-0.17684886 -0.13467352 0.6671325
-0.20287149 -0.12210298 0.66134691
-0.18325439 -0.13253646 0.66602695
-0.20978065 -0.031846218 0.70364487
-0.15915909 -0.13800199 0.66932905
-0.18597977 -0.1314767 0.66550648
-0.14588639 -0.13818282 0.67020607
-0.13726602 -0.13726602 0.67043149
-0.13933712 -0.026614957 0.72642666
-0.21292794 -0.032719422 0.70069414
-0.11434373 -0.029491369 0.72020525
-0.21061715 -0.11595776 0.6588248
-0.11596068 -0.13135795 0.6697765
-0.099306896 -0.12233458 0.66779822
-0.17316651 -0.13575104 0.66771775
-0.18052474 -0.13359788 0.66654819
-0.20241119 -0.030081259 0.70970881
-0.16010581 -0.13798909 0.66926646
-0.14493702 -0.13819577 0.67026883
-0.12762359 -0.13532916 0.67038035
-0.10225989 -0.12434418 0.66828531
-0.19674024 -0.12623769 0.66310048
-0.18870087 -0.13041858 0.66498679
-0.1314937 -0.13631032 0.67046869
-0.16853324 -0.13684322 0.66836643
-0.19496849 -0.12727772 0.66355562
-0.19850953 -0.12519905 0.66264588
-0.096358202 -0.1203279 0.66731185
-0.20721637 -0.11901901 0.66005301
-0.16105236 -0.1379762 0.66920394
-0.1750963 -0.026498253 0.72324139
-0.14398745 -0.13820869 0.67033154
-0.13631552 -0.13727888 0.67049426
-0.20660675 -0.03096563 0.70662057
-0.20463189 -0.12106992 0.66089469
-0.12083805 -0.13335514 0.67014098
-0.10435236 -0.031357113 0.71555406
-0.10913023 -0.12836023 0.66919917
-0.10882292 -0.030429156 0.71791679
-0.19319434 -0.1283192 0.66401148
-0.12375449 -0.13434826 0.67029202
-0.1383108 -0.026618306 0.72651809
-0.2002764 -0.12416185 0.66219193
-0.185561 -0.0273948 0.71949613
-0.12754241 -0.027590806 0.72464401
-0.1110886 -0.12936291 0.66941231
-0.10717309 -0.12735815 0.66898608
-0.095947377 -0.084778897 0.70665509
-0.17779082 -0.13466097 0.66707033
-0.20979427 -0.11697333 0.65921348
-0.093964159 -0.1170938 0.67075485
-0.16199873 -0.13796331 0.66914141
-0.1981788 -0.029189125 0.71282417
-0.14303771 -0.13822162 0.67039424
-0.11792292 -0.13236246 0.66999
-0.11989984 -0.028547579 0.72250825
-0.17410967 -0.13573839 0.66765553
-0.16947772 -0.13683045 0.66830409
-0.11304823 -0.13036625 0.66962564
-0.18419418 -0.13252413 0.66596496
-0.21318594 -0.11391976 0.65798837
-0.1052172 -0.12635674 0.66877317
-0.19141777 -0.12936214 0.66446799
-0.20204085 -0.12312607 0.66173857
-0.10030762 -0.12334478 0.66807288
-0.13536485 -0.13729174 0.67055708
-0.12667225 -0.13534184 0.67044312
-0.13054261 -0.13632309 0.67053151
-0.16294491 -0.13795042 0.66907889
-0.18691857 -0.13146447 0.66544461
-0.18146552 -0.13358544 0.66648614
-0.19290431 -0.028292634 0.71605581
-0.1420878 -0.13823457 0.67045707
-0.097356983 -0.12133653 0.66758609
-0.17611338 -0.026494933 0.72315079
-0.096508443 -0.033190735 0.71078736
-0.095379613 -0.10137205 0.69511777
-0.20638992 -0.12003828 0.66044313
-0.13728423 -0.026621658 0.72660959
-0.11500911 -0.13137023 0.66983914
-0.10326257 -0.12535594 0.66856039
-0.16389093 -0.13793753 0.66901636
-0.2123656 -0.11493283 0.65837604
-0.099911131 -0.032278981 0.71320677
-0.20897038 -0.11799008 0.65960258
-0.14113772 -0.13824752 0.67051989
-0.17042202 -0.13681768 0.66824168
-0.094701521 -0.11138469 0.68302381
-0.1896387 -0.13040647 0.66492504
-0.17873262 -0.13464843 0.66700822
-0.20380287 -0.1220917 0.66128582
-0.17505261 -0.13572572 0.66759324
-0.11332309 -0.029495049 0.72029513
-0.12280292 -0.13436083 0.67035478
-0.11988641 -0.13336761 0.67020369
-0.13441399 -0.1373046 0.6706199
-0.094410636 -0.11933121 0.66709995
-0.18657151 -0.027391383 0.71940643
-0.12651713 -0.02759427 0.72473502
-0.19767466 -0.12622598 0.66303903
-0.20340589 -0.030077564 0.70962161
-0.12959132 -0.13633585 0.67059427
-0.19590375 -0.12726593 0.66349417
-0.15515494 -0.025597954 0.72718579
-0.16483678 -0.13792464 0.6689539
-0.15412377 -0.025600219 0.7272501
-0.17713022 -0.026491616 0.72306025
-0.21076594 -0.031842336 0.7035591
-0.15618595 -0.025595693 0.72712153
-0.14018744 -0.13826047 0.67058265
-0.1530924 -0.025602482 0.72731441
-0.1550809 -0.024541421 0.72683871
-0.1540502 -0.024543591 0.72690296
-0.098356582 -0.12234599 0.66786051
-0.15721676 -0.025593426 0.72705716
-0.1561114 -0.024539251 0.72677445
-0.12572072 -0.1353545 0.67050588
-0.19944315 -0.12518747 0.66258454
-0.11697122 -0.13237484 0.67005271
-0.15301931 -0.024545761 0.72696722
-0.15206084 -0.025604745 0.72737873
-0.15714175 -0.024537085 0.72671026
-0.19413041 -0.12830731 0.66394997
-0.10130917 -0.12435579 0.66834772
-0.18513381 -0.13251181 0.66590303
-0.1550069 -0.023485895 0.72649193
-0.21154429 -0.11594709 0.65876418
-0.15397671 -0.023487972 0.72655618
-0.15824741 -0.025591165 0.72699291
-0.15603693 -0.023483818 0.72642773
-0.15198825 -0.024547931 0.72703153
-0.13625741 -0.026625009 0.72670108
-0.21390875 -0.032715455 0.70060915
-0.10817884 -0.12837222 0.66926175
-0.15294631 -0.023490047 0.72662038
-0.18240616 -0.13357301 0.66642416
-0.1101371 -0.12937501 0.66947496
-0.15102911 -0.025607012 0.7274431
-0.15817188 -0.024534913 0.72664595
-0.15706679 -0.023481745 0.7263636
-0.17136616 -0.13680491 0.66817933
-0.11887662 -0.028551152 0.72259867
-0.09596961 -0.085814096 0.70681888
-0.15191573 -0.023492122 0.72668457
-0.150957 -0.024550101 0.72709578
-0.15493299 -0.022431375 0.72614551
-0.15927787 -0.025588904 0.72692865
-0.15390326 -0.022433357 0.72620964
-0.15596253 -0.022429394 0.72608137
-0.15809646 -0.023479672 0.72629946
-0.10622182 -0.12737006 0.66904861
-0.15920186 -0.024532745 0.72658175
-0.15287335 -0.022435337 0.72627378
-0.14999722 -0.025609281 0.72750753
-0.20120922 -0.12415037 0.66213065
-0.18785724 -0.13145226 0.6653828
-0.1569919 -0.022427414 0.72601724
-0.16578242 -0.13791175 0.66889137
-0.20814553 -0.11900804 0.65999216
-0.13346294 -0.13731745 0.67068267
-0.11209659 -0.13037844 0.66968828
-0.2055625 -0.12105875 0.66083372
-0.095408306 -0.12033912 0.66737401
-0.15088496 -0.023494197 0.72674876
-0.19917837 -0.02918552 0.71273613
-0.139237 -0.13827342 0.67064548
-0.1923546 -0.12935013 0.6644063
-0.14992557 -0.024552273 0.7271601
-0.10780482 -0.03043294 0.71800601
-0.15184325 -0.022437319 0.72633791
-0.2075966 -0.030961839 0.70653409
-0.15912595 -0.023477599 0.72623533
-0.17599539 -0.13571307 0.66753101
-0.16030814 -0.02558664 0.7268644
-0.15802108 -0.022425434 0.72595316
-0.15485914 -0.021377861 0.72579938
-0.1538299 -0.021379748 0.72586346
-0.15588821 -0.021375975 0.72573537
-0.16023165 -0.024530577 0.72651756
-0.19390908 -0.028289124 0.715967
-0.10333706 -0.031360999 0.71564275
-0.14896511 -0.025611544 0.72757185
-0.15280047 -0.021381635 0.72592753
-0.14985402 -0.023496274 0.72681302
-0.15081298 -0.022439303 0.7264021
-0.17967422 -0.13463588 0.66694605
-0.1569171 -0.02137409 0.72567135
-0.15905009 -0.022423455 0.72588909
-0.16015524 -0.023475524 0.72617114
-0.14889395 -0.024554443 0.72722435
-0.15177086 -0.021383522 0.72599161
-0.15260428 -0.13912503 0.67010623
-0.10426605 -0.12636854 0.66883564
-0.15794578 -0.021372201 0.72560722
-0.15355271 -0.13911203 0.67004353
-0.15165567 -0.13913806 0.67016894
-0.16133823 -0.025584379 0.72680014
-0.17814679 -0.0264883 0.72296971
-0.15450098 -0.13909902 0.66998088
-0.15070689 -0.13915108 0.6702317
-0.12863986 -0.13634862 0.6706571
-0.14978254 -0.022441285 0.7264663
-0.15478536 -0.020325352 0.72545362
-0.12185117 -0.13437343 0.67041755
-0.11405735 -0.13138252 0.66990179
-0.16126126 -0.024528412 0.72645342
-0.1537566 -0.020327145 0.72551763
-0.15581395 -0.02032356 0.72538966
-0.14882289 -0.023498351 0.72687721
-0.210722 -0.11696254 0.65915275
-0.15074109 -0.021385415 0.7260558
-0.1600789 -0.022421475 0.72582501
-0.14793283 -0.025613811 0.72763622
-0.15544905 -0.13908599 0.66991818
-0.14975791 -0.13916411 0.6702944
-0.1589743 -0.021370316 0.7255432
-0.15272768 -0.020328939 0.72558171
-0.20297287 -0.12311469 0.66167742
-0.15684235 -0.020321766 0.72532564
-0.16672792 -0.13789888 0.6688289
-0.1189346 -0.1333801 0.67026645
-0.16118436 -0.023473451 0.726107
-0.14786218 -0.024556616 0.72728872
-0.17231011 -0.13679215 0.66811699
-0.13828637 -0.13828637 0.6707083
-0.099357009 -0.12335629 0.66813523
-0.15169854 -0.020330733 0.72564572
-0.15787056 -0.020319974 0.72526169
-0.15639696 -0.13907298 0.66985554
-0.14880878 -0.13917714 0.67035717
-0.19057639 -0.13039437 0.66486335
-0.18758178 -0.027387973 0.71931684
-0.1487519 -0.022443268 0.72653049
-0.1497111 -0.021387301 0.72611988
-0.16236813 -0.025582118 0.72673589
-0.1352303 -0.02662836 0.72679251
-0.12476905 -0.13536718 0.6705687
-0.16000265 -0.021368431 0.72547925
-0.12549159 -0.027597737 0.72482604
-0.16110756 -0.022419497 0.725761
-0.14779159 -0.023500429 0.72694153
-0.16229068 -0.024526244 0.72638923
-0.15471166 -0.019273844 0.72510821
-0.15066923 -0.020332526 0.72570974
-0.13251172 -0.13733032 0.67074555
-0.15889861 -0.020318182 0.72519773
-0.15573975 -0.019272145 0.72504425
-0.15368339 -0.019275544 0.72517216
-0.15734467 -0.13905998 0.66979283
-0.14785945 -0.13919017 0.67041993
-0.14690036 -0.025616076 0.72770059
-0.096406788 -0.12134784 0.66764832
-0.15676767 -0.019270444 0.72498029
-0.15265493 -0.019277245 0.72523612
-0.16221331 -0.02347138 0.72604293
-0.14868096 -0.02138919 0.72618401
-0.1468302 -0.024558786 0.72735304
-0.09398476 -0.11808342 0.67090189
-0.10231154 -0.12536766 0.66862285
-0.14772107 -0.022445252 0.72659469
-0.1610308 -0.021366546 0.72541523
-0.1577954 -0.019268746 0.7249164
-0.15162629 -0.019278944 0.72530007
-0.14963976 -0.020334322 0.72577381
-0.09540128 -0.10239404 0.69527566
-0.18334661 -0.1335606 0.66636217
-0.15992644 -0.020316388 0.72513372
-0.15829223 -0.13904698 0.66973025
-0.14690997 -0.13920321 0.67048275
-0.18607327 -0.13249947 0.6658411
-0.16339785 -0.025579855 0.72667164
-0.20731972 -0.12002721 0.66038221
-0.16213599 -0.022417517 0.72569686
-0.17693801 -0.13570042 0.66746879
-0.11230218 -0.02949873 0.72038502
-0.14676011 -0.023502508 0.72700584
-0.11601935 -0.13238724 0.67011541
-0.16331993 -0.02452408 0.72632509
-0.16767322 -0.137886 0.66876644
-0.15882295 -0.019267047 0.7248525
-0.15059747 -0.019280644 0.72536403
-0.15463804 -0.018223338 0.7247631
-0.14586772 -0.025618345 0.72776502
-0.15566564 -0.01822173 0.7246992
-0.15361024 -0.018224943 0.72482699
-0.14765061 -0.021391079 0.72624815
-0.13733557 -0.13829932 0.67077112
-0.16324206 -0.023469307 0.72597879
-0.14861007 -0.020336116 0.72583783
-0.19683881 -0.12725414 0.66343272
-0.2047341 -0.12208043 0.66122478
-0.16095412 -0.020314598 0.72506982
-0.15669307 -0.018220125 0.7246353
-0.16205879 -0.021364663 0.72535127
-0.15258226 -0.018226549 0.72489083
-0.15923959 -0.13903396 0.66966754
-0.14596029 -0.13921624 0.67054552
-0.14669007 -0.022447234 0.72665888
-0.19860893 -0.12621431 0.6629777
-0.14579804 -0.02456096 0.72741741
-0.20989877 -0.11797921 0.65954185
-0.15985034 -0.01926535 0.72478867
-0.14956847 -0.019282347 0.72542804
-0.18061566 -0.13462335 0.66688395
-0.17916311 -0.026484983 0.72287917
-0.19506627 -0.12829542 0.66388839
-0.15772033 -0.018218519 0.72457147
-0.15155411 -0.018228156 0.72495478
-0.16316427 -0.022415539 0.72563285
-0.12768824 -0.13636141 0.67071998
-0.17325389 -0.13677938 0.66805464
-0.1644274 -0.025577595 0.72660744
-0.18879569 -0.13144004 0.66532093
-0.21329194 -0.11492226 0.65831554
-0.098898612 -0.032282967 0.71329486
-0.14572842 -0.023504585 0.72707009
-0.16434897 -0.024521912 0.7262609
-0.10918541 -0.12938711 0.66953754
-0.20440035 -0.030073866 0.70953441
-0.11785314 -0.028554725 0.72268909
-0.14758024 -0.020337913 0.72590196
-0.15874739 -0.018216914 0.72450763
-0.2003766 -0.12517588 0.66252321
-0.14662009 -0.021392968 0.72631228
-0.15052578 -0.018229766 0.72501874
-0.16198161 -0.020312807 0.72500587
-0.16018678 -0.13902096 0.66960496
-0.10722727 -0.12838422 0.66932428
-0.14501043 -0.13922928 0.67060834
-0.16087751 -0.019263651 0.72472471
-0.14853929 -0.019284047 0.72549206
-0.16427064 -0.023467235 0.72591472
-0.14483489 -0.025620613 0.72782946
-0.16308655 -0.021362776 0.7252872
-0.15456447 -0.017173829 0.72441828
-0.13156033 -0.1373432 0.67080837
-0.095991842 -0.086849764 0.70698261
-0.15559161 -0.017172318 0.72435451
-0.13420296 -0.026631715 0.72688407
-0.1111448 -0.13039064 0.66975099
-0.15353715 -0.017175343 0.72448212
-0.14565888 -0.022449218 0.72672307
-0.12089924 -0.134386 0.67048031
-0.19329129 -0.12933812 0.66434467
-0.15661855 -0.017170804 0.72429067
-0.1447657 -0.024563134 0.72748178
-0.15250967 -0.017176857 0.72454602
-0.15977427 -0.018215308 0.72444379
-0.094722658 -0.11239114 0.68317628
-0.14949726 -0.018231371 0.72508264
-0.10035826 -0.12436741 0.66841012
-0.16861835 -0.13787311 0.66870397
-0.097406097 -0.12235741 0.66792285
-0.16419236 -0.022413561 0.72556883
-0.15764531 -0.017169291 0.72422689
-0.1949136 -0.028285615 0.71587819
-0.10527038 -0.12738197 0.66911113
-0.151482 -0.017178372 0.72460985
-0.13638459 -0.1383123 0.670834
-0.14655021 -0.020339707 0.72596604
-0.12381718 -0.13537987 0.67063153
-0.21175101 -0.031838458 0.70347339
-0.16545677 -0.025575336 0.72654325
-0.14469656 -0.023506662 0.72713435
-0.16190453 -0.019261954 0.72466087
-0.14750992 -0.01928575 0.72555608
-0.1611338 -0.13900796 0.66954231
-0.16300893 -0.020311017 0.72494197
-0.14406039 -0.13924232 0.67067111
-0.20017771 -0.029181916 0.71264815
-0.14558941 -0.021394858 0.72637647
-0.11798262 -0.13339259 0.67032921
-0.16537786 -0.024519745 0.72619677
-0.20214187 -0.12413888 0.66206944
-0.1586719 -0.017167779 0.72416306
-0.16080099 -0.018213706 0.72438002
-0.16411416 -0.021360891 0.72522324
-0.14846855 -0.018232981 0.72514659
-0.15045413 -0.017179884 0.72467369
-0.11310543 -0.13139482 0.66996449
-0.18859178 -0.027384561 0.71922719
-0.16529903 -0.023465162 0.72585058
-0.17788045 -0.13568778 0.66740662
-0.14380188 -0.02562288 0.72789389
-0.14462751 -0.022451201 0.72678733
-0.21247126 -0.11593644 0.65870363
-0.12446579 -0.027601201 0.72491705
-0.15449096 -0.01612532 0.72407383
-0.15551761 -0.0161239 0.72401005
-0.15346414 -0.016126741 0.7241376
-0.2064929 -0.12104756 0.66077268
-0.15969829 -0.017166266 0.72409928
-0.14373317 -0.024565306 0.7275461
-0.10678647 -0.030436723 0.7180953
-0.15654409 -0.016122481 0.72394633
-0.19151387 -0.13038225 0.6648016
-0.14942609 -0.017181398 0.72473752
-0.16522028 -0.022411585 0.72550482
-0.16293135 -0.019260256 0.72459698
-0.14648037 -0.01928745 0.72562009
-0.15243714 -0.01612816 0.72420138
-0.14552 -0.020341504 0.72603017
-0.16208063 -0.13899496 0.66947973
-0.20907454 -0.11899707 0.65993136
-0.21488927 -0.032711484 0.70052409
-0.18428688 -0.13354816 0.66630012
-0.14311019 -0.13925536 0.67073393
-0.16182752 -0.0182121 0.72431618
-0.16403605 -0.020309227 0.72487807
-0.17419748 -0.13676661 0.66799229
-0.14743967 -0.018234588 0.72521055
-0.20858622 -0.030958053 0.70644766
-0.10331473 -0.12638035 0.66889817
-0.15757038 -0.016121062 0.72388262
-0.094458237 -0.12035035 0.6674363
-0.14366454 -0.023508742 0.72719866
-0.18017919 -0.026481668 0.72278869
-0.14455853 -0.021396751 0.72644067
-0.15140994 -0.016129581 0.72426516
-0.16648595 -0.025573077 0.72647905
-0.18701257 -0.13248716 0.66577923
-0.16072454 -0.017164756 0.72403556
-0.16640656 -0.024517581 0.72613263
-0.12673642 -0.13637418 0.67078274
-0.16956329 -0.13786024 0.66864151
-0.1651416 -0.021359008 0.72515929
-0.15859649 -0.016119642 0.7238189
-0.14839788 -0.017182913 0.72480142
-0.18155693 -0.1346108 0.66682184
-0.10232151 -0.031364884 0.71573138
-0.13060874 -0.13735606 0.6708712
-0.15038256 -0.016131001 0.72432894
-0.13543344 -0.13832526 0.67089689
-0.16632725 -0.023463091 0.72578657
-0.14359596 -0.022453187 0.72685158
-0.20390472 -0.12310331 0.66161627
-0.11506732 -0.13239963 0.67017817
-0.14276868 -0.025625149 0.72795832
-0.16285385 -0.018210495 0.72425234
-0.163958 -0.019258559 0.72453314
-0.14545064 -0.019289153 0.72568411
-0.1464106 -0.018236196 0.7252745
-0.1630273 -0.13898197 0.66941714
-0.15962242 -0.016118223 0.72375518
-0.14215979 -0.1392684 0.67079675
-0.14448959 -0.0203433 0.72609425
-0.13317533 -0.026635066 0.72697556
-0.15441754 -0.015077808 0.72372973
-0.16624801 -0.022409607 0.7254408
-0.14270046 -0.024567479 0.72761047
-0.16175058 -0.017163245 0.72397184
-0.15544371 -0.015076481 0.72366601
-0.16506299 -0.020307435 0.72481412
-0.1533912 -0.015079134 0.72379339
-0.14935501 -0.016132424 0.72439277
-0.15646969 -0.015075153 0.72360229
-0.14736947 -0.017184427 0.72486532
-0.098406218 -0.1233678 0.66819757
-0.15236467 -0.015080461 0.7238571
-0.14352745 -0.021398639 0.7265048
-0.2116496 -0.11695179 0.65909213
-0.14263232 -0.023510823 0.72726303
-0.1574955 -0.015073827 0.72353864
-0.16751494 -0.025570817 0.72641486
-0.16064815 -0.016116805 0.72369146
-0.16616885 -0.021357125 0.72509539
-0.189734 -0.13142782 0.66525912
-0.15133795 -0.015081789 0.72392082
-0.16743508 -0.024515416 0.72606856
-0.16388002 -0.018208891 0.72418857
-0.14832728 -0.016133845 0.72445661
-0.10136034 -0.12537937 0.66868532
-0.11994713 -0.13439859 0.67054313
-0.11128102 -0.02950241 0.7204749
-0.15852113 -0.0150725 0.72347498
-0.14538136 -0.018237805 0.72533852
-0.16498448 -0.019256864 0.72446936
-0.16277644 -0.017161734 0.72390807
-0.14442073 -0.019290855 0.72574818
-0.19777371 -0.12724236 0.66337126
-0.12286513 -0.13539255 0.67069435
-0.16735528 -0.02346102 0.72572249
-0.14256424 -0.022455173 0.72691584
-0.15031108 -0.015083119 0.72398466
-0.16397379 -0.13896899 0.66935462
-0.19600196 -0.12828352 0.66382682
-0.14634091 -0.017185943 0.72492927
-0.14120921 -0.13928145 0.67085958
-0.1788227 -0.13567513 0.66734439
-0.095456414 -0.12135915 0.66771054
-0.17050807 -0.13784738 0.6685791
-0.14345902 -0.020345097 0.72615838
-0.1417353 -0.025627417 0.72802275
-0.19954301 -0.12620261 0.6629163
-0.17514093 -0.13675387 0.66793007
-0.16608977 -0.020305645 0.72475028
-0.16167371 -0.016115386 0.72362775
-0.15954657 -0.015071174 0.72341132
-0.11682941 -0.028558301 0.72277957
-0.16727556 -0.022407629 0.72537678
-0.13448209 -0.13833821 0.67095971
-0.14166757 -0.024569653 0.72767484
-0.20824936 -0.12001614 0.66032135
-0.10823353 -0.12939921 0.66960013
-0.14729936 -0.016135266 0.72452044
-0.15434419 -0.014031289 0.72338587
-0.14928401 -0.015084446 0.72404838
-0.15536988 -0.014030056 0.72332227
-0.15331832 -0.014032524 0.72344953
-0.14249621 -0.02140053 0.726569
-0.11019281 -0.13040283 0.66981357
-0.11703045 -0.13340509 0.67039198
-0.19422778 -0.12932612 0.66428304
-0.15639539 -0.014028822 0.72325867
-0.20566514 -0.12206915 0.66116369
-0.18119501 -0.026478352 0.72269821
-0.095422961 -0.10341651 0.69543368
-0.15229227 -0.014033759 0.72351319
-0.16490601 -0.018207287 0.72412479
-0.16380213 -0.017160224 0.72384435
-0.129657 -0.13736895 0.67093414
-0.10627552 -0.12839623 0.66938686
-0.14159992 -0.023512902 0.72732735
-0.18960154 -0.02738115 0.71913761
-0.16719592 -0.021355242 0.72503144
-0.16057184 -0.01506985 0.72334772
-0.14435193 -0.018239414 0.72540247
-0.15742072 -0.014027589 0.72319508
-0.09601409 -0.087885916 0.70714647
-0.16854377 -0.02556856 0.72635072
-0.2013099 -0.12516432 0.662462
-0.14531215 -0.017187458 0.72499317
-0.12578443 -0.13638696 0.67084563
-0.16601077 -0.019255167 0.72440553
-0.19591786 -0.028282106 0.71578938
-0.14339064 -0.019292559 0.72581232
-0.1626991 -0.016113969 0.72356409
-0.16846341 -0.024513252 0.72600442
-0.15126605 -0.014034995 0.7235769
-0.12343974 -0.027604667 0.72500807
-0.14825675 -0.015085774 0.72411209
-0.18522698 -0.13353573 0.66623813
-0.16492009 -0.138956 0.66929203
-0.14025848 -0.13929451 0.67092246
-0.20539455 -0.030070171 0.70944721
-0.15844585 -0.014026354 0.72313142
-0.11215331 -0.1314071 0.67002714
-0.14627127 -0.016136687 0.72458428
-0.16838314 -0.02345895 0.72565848
-0.14153232 -0.022457156 0.72698009
-0.21082698 -0.11796835 0.65948111
-0.14242825 -0.020346891 0.72622246
-0.18249802 -0.13459828 0.66675979
-0.15023965 -0.01403623 0.72364056
-0.16711634 -0.020303855 0.72468638
-0.16159692 -0.015068524 0.72328407
-0.094005376 -0.11907347 0.67104906
-0.13214746 -0.02663842 0.72706711
-0.14070176 -0.025629686 0.72808725
-0.10431876 -0.12739387 0.66917372
-0.16830294 -0.022405654 0.72531283
-0.15947081 -0.01402512 0.72306782
-0.19245119 -0.13037015 0.66473991
-0.20117682 -0.029178318 0.71256024
-0.18795167 -0.13247484 0.6657173
-0.16482763 -0.017158713 0.72378063
-0.14722931 -0.015087103 0.72417587
-0.14063452 -0.02457183 0.72773933
-0.16593182 -0.018205686 0.72406107
-0.099407166 -0.12437902 0.66847253
-0.17145267 -0.1378345 0.6685167
-0.1637243 -0.016112551 0.72350043
-0.14146478 -0.02140242 0.72663319
-0.14921305 -0.014037465 0.72370422
-0.097885855 -0.032286957 0.71338302
-0.14428319 -0.017188974 0.72505707
-0.14332233 -0.018241024 0.72546649
-0.1542709 -0.012985767 0.72304243
-0.1552961 -0.012984624 0.72297883
-0.20307435 -0.12412741 0.66200823
-0.15324552 -0.012986909 0.72310603
-0.096455425 -0.12236882 0.66798514
-0.13353057 -0.13835117 0.67102259
-0.16822281 -0.02135336 0.72496754
-0.15632114 -0.012983483 0.72291529
-0.096036389 -0.044680033 0.71487552
-0.14524299 -0.01613811 0.72464812
-0.16703685 -0.019253468 0.72434163
-0.096013896 -0.043642681 0.71470809
-0.14056733 -0.02351498 0.72739166
-0.16049561 -0.014023888 0.72300428
-0.14236036 -0.019294262 0.72587633
-0.16262183 -0.015067198 0.72322047
-0.096058898 -0.045717873 0.71504307
-0.15221995 -0.012988051 0.72316962
-0.095991403 -0.04260581 0.71454066
-0.16586623 -0.13894302 0.66922951
-0.1695724 -0.025566299 0.72628653
-0.17608418 -0.13674112 0.66786772
-0.1141151 -0.13241203 0.67024094
-0.15734598 -0.012982342 0.72285175
-0.13930754 -0.13930754 0.67098528
-0.096081413 -0.046756197 0.71521068
-0.16949156 -0.024511086 0.72594029
-0.14818628 -0.014038701 0.72376794
-0.095968939 -0.041569434 0.71437341
-0.17976479 -0.1356625 0.66728222
-0.15119421 -0.012989193 0.72323322
-0.1462017 -0.015088432 0.72423965
-0.14139731 -0.02034869 0.72628665
-0.14050022 -0.022459142 0.72704434
-0.16941081 -0.023456881 0.72559446
-0.15837064 -0.012981201 0.72278821
-0.1219129 -0.13540523 0.67075717
-0.16814275 -0.020302067 0.72462255
-0.096103951 -0.047795013 0.7153784
-0.21273583 -0.03183458 0.70338768
-0.16585295 -0.017157203 0.72371691
-0.10236323 -0.12639216 0.66896063
-0.16474934 -0.016111134 0.72343683
-0.16152021 -0.014022656 0.72294074
-0.095946468 -0.040533535 0.71420616
-0.11899484 -0.13441117 0.6706059
-0.10576788 -0.030440511 0.71818465
-0.20742318 -0.1210364 0.66071177
-0.12870505 -0.13738181 0.67099696
-0.15016827 -0.012990335 0.72329682
-0.16695744 -0.018204082 0.72399729
-0.139668 -0.025631955 0.72815168
-0.16933011 -0.022403676 0.72524881
-0.14325407 -0.01719049 0.72512102
-0.16364655 -0.015065873 0.72315687
-0.19067211 -0.13141562 0.66519731
-0.15939513 -0.01298006 0.72272468
-0.096126482 -0.048834309 0.71554613
-0.094743818 -0.11339804 0.68332887
-0.14421454 -0.016139533 0.72471201
-0.14229254 -0.018242633 0.72553051
-0.15268156 -0.14015879 0.67044556
-0.18221055 -0.026475037 0.72260773
-0.14715934 -0.014039936 0.72383165
-0.15173247 -0.1401719 0.67050833
-0.15363047 -0.14014566 0.6703828
-0.13960126 -0.024574004 0.72780371
-0.14043318 -0.021404313 0.72669744
-0.21339804 -0.11592577 0.65864301
-0.09592402 -0.039498124 0.71403903
-0.1507832 -0.14018503 0.67057109
-0.15457919 -0.14013253 0.67032003
-0.21000336 -0.1189861 0.65987051
-0.14914216 -0.012991478 0.72336042
-0.20957559 -0.030954264 0.70636123
-0.16806278 -0.019251773 0.72427785
-0.14517389 -0.015089761 0.72430342
-0.1413299 -0.019295964 0.72594041
-0.12483227 -0.13639973 0.67090851
-0.1692495 -0.021351475 0.72490358
-0.14983378 -0.14019817 0.67063397
-0.15552776 -0.14011943 0.67025733
-0.16254464 -0.014021423 0.7228772
-0.16681217 -0.13893002 0.66916692
-0.2048364 -0.12309194 0.66155517
-0.15419771 -0.011941236 0.72269934
-0.17239711 -0.13782164 0.66845429
-0.15522243 -0.011940187 0.72263581
-0.13835646 -0.13932061 0.67104822
-0.13953456 -0.023517063 0.72745603
-0.096149035 -0.049874101 0.71571404
-0.16041943 -0.012978919 0.72266114
-0.15317279 -0.011942285 0.72276282
-0.15624696 -0.011939136 0.72257227
-0.14888415 -0.14021128 0.67069674
-0.17060085 -0.025564041 0.7262224
-0.15647613 -0.14010631 0.67019457
-0.095901564 -0.038463194 0.7138719
-0.16577417 -0.016109714 0.72337312
-0.15214771 -0.011943335 0.72282636
-0.13257888 -0.13836414 0.67108548
-0.1160781 -0.13341758 0.67045474
-0.1668781 -0.017155692 0.72365326
-0.15727133 -0.011938088 0.72250879
-0.17051953 -0.024508923 0.72587621
-0.14613222 -0.014041173 0.72389543
-0.1403662 -0.02035049 0.72635084
-0.10130572 -0.031368773 0.71582013
-0.14811589 -0.012992622 0.72342414
-0.16467109 -0.015064549 0.72309327
-0.13111933 -0.026641775 0.72715867
-0.19693749 -0.12827164 0.66376531
-0.16916898 -0.020300278 0.72455871
-0.1987084 -0.12723055 0.66330975
-0.19061105 -0.027377738 0.71904802
-0.13946794 -0.022461127 0.72710866
-0.1861669 -0.1335233 0.66617614
-0.15112244 -0.011944385 0.7228899
-0.18343893 -0.13458574 0.66669768
-0.1704383 -0.023454811 0.72553045
-0.14222477 -0.017192006 0.72518498
-0.1431859 -0.016140956 0.72477591
-0.14793436 -0.14022444 0.67075962
-0.15742432 -0.14009321 0.67013186
-0.096171595 -0.050914373 0.71588194
-0.16798288 -0.018202478 0.72393352
-0.15829551 -0.011937039 0.72244531
-0.16144356 -0.012977779 0.72259766
-0.097455256 -0.12337931 0.66825992
-0.11580543 -0.028561877 0.72287011
-0.11025961 -0.029506095 0.72056484
-0.16356888 -0.01402019 0.72281361
-0.14126256 -0.018244242 0.72559452
-0.12241343 -0.027608134 0.72509915
-0.14414594 -0.015091091 0.72436732
-0.19516411 -0.12931412 0.66422141
-0.095879138 -0.037428755 0.71370494
-0.10040894 -0.12539108 0.66874772
-0.17035712 -0.0224017 0.72518486
-0.10924064 -0.13041504 0.66987628
-0.17702724 -0.13672836 0.66780543
-0.20047691 -0.12619093 0.66285491
-0.1072815 -0.12941131 0.66966277
-0.15009698 -0.011945435 0.72295344
-0.13863409 -0.025634227 0.72821623
-0.15931953 -0.011935991 0.72238189
-0.14708942 -0.012993765 0.72348779
-0.14698438 -0.14023755 0.67082238
-0.15837233 -0.14008008 0.6700691
-0.13940139 -0.021406205 0.7267617
-0.16908851 -0.019250078 0.72421408
-0.13856782 -0.02457618 0.72786814
-0.14029926 -0.019297667 0.72600448
-0.1451049 -0.014042409 0.72395915
-0.212577 -0.11694103 0.65903145
-0.16775794 -0.13891704 0.6691044
-0.1969219 -0.0282786 0.71570069
-0.18889061 -0.13246253 0.66565543
-0.096194163 -0.051955137 0.71604997
-0.11120104 -0.13141941 0.6700899
-0.13740519 -0.13933368 0.67111117
-0.17027603 -0.021349594 0.72483969
-0.16246751 -0.012976638 0.72253418
-0.16679883 -0.016108299 0.72330952
-0.10532359 -0.12840821 0.66944939
-0.14907137 -0.011946485 0.72301704
-0.16569546 -0.015063223 0.72302967
-0.18070668 -0.13564985 0.66722
-0.096036352 -0.088922553 0.70731044
-0.12775294 -0.13739468 0.67105985
-0.16790305 -0.017154181 0.72358954
-0.16034335 -0.011934943 0.72231841
-0.13850161 -0.023519143 0.72752041
-0.14603424 -0.1402507 0.67088526
-0.095856704 -0.036394794 0.71353799
-0.15932018 -0.14006698 0.67000645
-0.15412456 -0.010897696 0.7223565
-0.15514879 -0.010896738 0.72229302
-0.16459294 -0.014018957 0.72275007
-0.094505876 -0.12137049 0.66777289
-0.19338831 -0.13035806 0.66467816
-0.15310012 -0.010898652 0.72241992
-0.202243 -0.12515272 0.66240066
-0.14215708 -0.016142379 0.72483981
-0.15617287 -0.010895781 0.7222296
-0.17162913 -0.025561785 0.72615832
-0.17334135 -0.13780877 0.66839188
-0.13933489 -0.020352285 0.72641498
-0.14606278 -0.012994909 0.72355145
-0.14119528 -0.017193522 0.72524893
-0.14311777 -0.01509242 0.7244311
-0.20917881 -0.12000507 0.66026044
-0.20659602 -0.12205788 0.66110265
-0.17154731 -0.024506759 0.72581214
-0.1209605 -0.13541792 0.67082006
-0.17019501 -0.020298488 0.72449481
-0.15207551 -0.01089961 0.7224834
-0.16900814 -0.018200876 0.7238698
-0.14804555 -0.011947537 0.72308064
-0.15719675 -0.010894824 0.72216612
-0.13843548 -0.022463117 0.72717303
-0.18322584 -0.026471723 0.72251725
-0.17146559 -0.02345274 0.72546637
-0.13162701 -0.13837712 0.67114842
-0.14023241 -0.018245852 0.72565854
-0.096216746 -0.05299639 0.71621805
-0.16349128 -0.012975498 0.7224707
-0.161367 -0.011933893 0.72225493
-0.14407739 -0.014043645 0.72402287
-0.15105073 -0.010900569 0.72254694
-0.11316268 -0.13242441 0.67030364
-0.1450839 -0.14026384 0.67094815
-0.16026783 -0.14005387 0.66994375
-0.15822044 -0.010893866 0.7221027
-0.11804237 -0.13442376 0.67066872
-0.10336694 -0.12740576 0.66923618
-0.20638849 -0.030066472 0.70935994
-0.12387991 -0.13641252 0.67097133
-0.20217565 -0.029174715 0.71247226
-0.17138395 -0.022399727 0.72512096
-0.095834292 -0.035361316 0.71337116
-0.16671965 -0.0150619 0.72296613
-0.13759997 -0.025636498 0.72828072
-0.095444657 -0.10443944 0.69559181
-0.16782331 -0.016106881 0.72324586
-0.17011409 -0.019248383 0.7241503
-0.15002577 -0.010901527 0.72261041
-0.16870354 -0.13890406 0.66904187
-0.1383694 -0.021408096 0.72682589
-0.13926844 -0.019299373 0.72606862
-0.14701957 -0.011948586 0.72314417
-0.16561683 -0.014017724 0.72268653
-0.15924399 -0.010892911 0.72203934
-0.14503594 -0.012996051 0.72361511
-0.13645372 -0.13934672 0.67117399
-0.1375342 -0.024578355 0.72793257
-0.16239046 -0.011932845 0.72219151
-0.16892785 -0.017152673 0.72352588
-0.17130238 -0.021347713 0.72477579
-0.19161007 -0.13140342 0.66513556
-0.13009094 -0.026645131 0.72725028
-0.21175501 -0.11795749 0.65942037
-0.1441334 -0.140277 0.67101103
-0.16121534 -0.14004079 0.66988111
-0.20400667 -0.12411594 0.66194707
-0.14112808 -0.016143801 0.7249037
-0.098455906 -0.12439063 0.66853493
-0.14208944 -0.01509375 0.72449493
-0.16451487 -0.012974358 0.72240722
-0.096239343 -0.054038133 0.71638626
-0.14900061 -0.010902484 0.72267389
-0.17797014 -0.13671561 0.66774315
-0.13746847 -0.023521222 0.72758472
-0.16026732 -0.010891954 0.72197592
-0.14016563 -0.017195038 0.72531295
-0.14304973 -0.014044882 0.72408664
-0.18437968 -0.13457322 0.66663563
-0.1383034 -0.020354085 0.72647917
-0.17003322 -0.018199274 0.72380608
-0.095811896 -0.034328327 0.71320444
-0.1459934 -0.011949637 0.72320777
-0.15405147 -0.0098551447 0.72201395
-0.15507524 -0.0098542795 0.72195059
-0.17122087 -0.0202967 0.72443098
-0.17265722 -0.025559528 0.72609419
-0.15302753 -0.0098560108 0.72207743
-0.095504582 -0.12238024 0.66804749
-0.18710667 -0.13351089 0.66611421
-0.15609883 -0.0098534143 0.72188723
-0.17257494 -0.024504598 0.72574812
-0.13920207 -0.018247463 0.72572261
-0.11512557 -0.13343006 0.6705175
-0.16341375 -0.011931797 0.72212809
-0.1479753 -0.010903442 0.72273743
-0.14400892 -0.012997195 0.72367877
-0.13740283 -0.022465102 0.72723728
-0.17428543 -0.13779593 0.66832954
-0.10141154 -0.12640397 0.66902316
-0.15200341 -0.009856876 0.72214085
-0.16774364 -0.015060575 0.72290254
-0.15712224 -0.00985255 0.72182387
-0.12680067 -0.13740757 0.67112279
-0.14318271 -0.14029013 0.67107385
-0.17249271 -0.023450671 0.72540236
-0.19162031 -0.027374329 0.7189585
-0.16664053 -0.014016493 0.72262305
-0.1612905 -0.010890998 0.72191256
-0.16216263 -0.14002767 0.6698184
-0.096872844 -0.032290947 0.71347117
-0.16884761 -0.016105464 0.72318226
-0.18164842 -0.13563721 0.66715789
-0.1509791 -0.0098577421 0.72220427
-0.13067496 -0.13839009 0.67121136
-0.15814547 -0.0098516848 0.72176051
-0.16553827 -0.012973218 0.72234374
-0.096261941 -0.055080362 0.71655446
-0.17241058 -0.022397749 0.72505695
-0.16964898 -0.13889109 0.66897941
-0.17113948 -0.019246688 0.72408658
-0.10474902 -0.030444298 0.718274
-0.12138686 -0.027611602 0.72519022
-0.13823745 -0.019301077 0.72613275
-0.20835325 -0.12102523 0.66065079
-0.13550209 -0.13935979 0.67123693
-0.094025992 -0.12006395 0.67119622
-0.13656569 -0.025638768 0.72834522
-0.13733724 -0.021409988 0.72689015
-0.14106092 -0.01509508 0.72455877
-0.16995244 -0.017151164 0.72346222
-0.14496703 -0.011950688 0.72327137
-0.14694978 -0.010904402 0.72280097
-0.14009888 -0.016145224 0.7249676
-0.14995462 -0.0098586073 0.72226769
-0.14202186 -0.014046118 0.72415036
-0.19787285 -0.12825975 0.6637038
-0.1591685 -0.0098508196 0.72169709
-0.0957895 -0.033295818 0.71303773
-0.16231349 -0.010890042 0.7218492
-0.21372043 -0.031830702 0.70330203
-0.17232855 -0.021345831 0.72471195
-0.13650039 -0.024580531 0.727997
-0.16443685 -0.01193075 0.72206467
-0.18982938 -0.13245022 0.66559356
-0.19964296 -0.12721878 0.66324836
-0.18424089 -0.026468409 0.72242683
-0.11478119 -0.028565455 0.72296065
-0.13913576 -0.017196555 0.7253769
-0.2057679 -0.12308057 0.66149402
-0.14223185 -0.14030328 0.6711368
-0.16310976 -0.14001457 0.66975576
-0.19610026 -0.12930213 0.66415977
-0.14298174 -0.01299834 0.72374249
-0.1200079 -0.1354306 0.67088288
-0.1082883 -0.13042724 0.66993892
-0.21093205 -0.11897515 0.65980977
-0.14892994 -0.0098594734 0.72233111
-0.21056472 -0.030950477 0.70627481
-0.17105812 -0.018197672 0.72374237
-0.13643517 -0.023523305 0.72764915
-0.16019137 -0.0098499553 0.72163379
-0.10632928 -0.12942341 0.66972542
-0.1229274 -0.1364253 0.67103428
-0.16766407 -0.014015262 0.72255957
-0.13727172 -0.020355882 0.72654331
-0.16876747 -0.015059251 0.722839
-0.11024857 -0.13143171 0.6701526
-0.17224656 -0.020294912 0.7243672
-0.14592411 -0.01090536 0.72286451
-0.13817157 -0.018249074 0.72578669
-0.19792566 -0.028275095 0.71561193
-0.10923795 -0.029509777 0.72065479
-0.16656148 -0.012972078 0.72228026
-0.20141067 -0.12617926 0.66279358
-0.096284553 -0.056123082 0.71672279
-0.17368512 -0.025557268 0.72602999
-0.14394054 -0.011951741 0.72333509
-0.16333629 -0.010889086 0.72178578
-0.16987175 -0.01610405 0.72311872
-0.17360236 -0.024502434 0.72568405
-0.15500174 -0.0088128084 0.72160846
-0.15397847 -0.0088135824 0.72167182
-0.19432528 -0.13034596 0.66461647
-0.13637002 -0.02246709 0.72730166
-0.17891288 -0.13670287 0.66768092
-0.11708974 -0.13443637 0.6707316
-0.15602486 -0.0088120354 0.72154516
-0.15295501 -0.0088143563 0.72173518
-0.14790508 -0.0098603386 0.72239453
-0.17351967 -0.023448603 0.7253384
-0.16121407 -0.0098490911 0.72157049
-0.099457383 -0.12540279 0.66881019
-0.1654598 -0.011929703 0.72200131
-0.09476497 -0.11440538 0.68348145
-0.096504115 -0.12339083 0.66832232
-0.12906229 -0.02664849 0.72734195
-0.1043715 -0.12842023 0.66951203
-0.10028966 -0.031372663 0.71590889
-0.15704779 -0.0088112624 0.72148186
-0.15193136 -0.0088151302 0.72179854
-0.1412808 -0.14031643 0.67119968
-0.14003222 -0.01509641 0.72462261
-0.17522931 -0.13778305 0.66826713
-0.16405672 -0.14000148 0.66969311
-0.17059422 -0.13887811 0.66891688
-0.14099383 -0.014047356 0.7242142
-0.096058629 -0.089959666 0.70747447
-0.17216466 -0.019244991 0.72402275
-0.1122101 -0.13243681 0.67036641
-0.13455027 -0.13937287 0.67129993
-0.17097686 -0.017149655 0.72339857
-0.13906951 -0.016146647 0.7250315
-0.13720626 -0.019302782 0.72619689
-0.17343704 -0.022395775 0.72499305
-0.14195436 -0.012999483 0.7238062
-0.15807055 -0.0088104894 0.72141856
-0.15090753 -0.0088159041 0.7218619
-0.14489824 -0.010906318 0.72292805
-0.1363049 -0.021411881 0.7269544
-0.12972273 -0.13840306 0.67127424
-0.1355312 -0.025641039 0.72840971
-0.12584819 -0.13742045 0.67118567
-0.14688008 -0.0098612066 0.72245806
-0.16435891 -0.010888129 0.72172242
-0.20317593 -0.12514114 0.66233939
-0.13810572 -0.017198071 0.72544086
-0.18532023 -0.13456069 0.66657352
-0.16223659 -0.0098482277 0.72150719
-0.17335452 -0.02134395 0.72464806
-0.1686874 -0.014014031 0.72249609
-0.15909311 -0.0088097164 0.72135526
-0.14988352 -0.0088166771 0.72192526
-0.14291382 -0.011952791 0.72339869
-0.16758454 -0.012970939 0.72221684
-0.13546641 -0.024582708 0.7280615
-0.19254784 -0.13139121 0.66507375
-0.096307181 -0.057166293 0.71689123
-0.16979112 -0.015057927 0.72277546
-0.17208286 -0.018196072 0.72367871
-0.18258996 -0.13562456 0.66709566
-0.18804623 -0.13349847 0.66605222
-0.16648252 -0.011928654 0.72193784
-0.14032957 -0.14032957 0.67126256
-0.16500351 -0.13998839 0.66963053
-0.10241497 -0.12741768 0.66929877
-0.20752674 -0.12204662 0.66104168
-0.13623987 -0.020357681 0.72660756
-0.13540168 -0.023525389 0.72771358
-0.13714086 -0.018250683 0.7258507
-0.16011551 -0.0088089444 0.72129202
-0.20317425 -0.029171115 0.71238434
-0.14885934 -0.008817452 0.72198868
-0.17327206 -0.020293124 0.72430336
-0.1708957 -0.016102633 0.72305512
-0.21010809 -0.11999401 0.66019958
-0.14585486 -0.0098620728 0.72252154
-0.11417288 -0.13344257 0.67058033
-0.14387219 -0.010907277 0.72299165
-0.16325893 -0.0098473635 0.72144389
-0.13996561 -0.014048593 0.72427797
-0.17471285 -0.025555013 0.72596592
-0.13900334 -0.015097741 0.7246865
-0.20738222 -0.030062778 0.7092728
-0.19262931 -0.02737092 0.71886897
-0.16538137 -0.010887175 0.72165912
-0.14092681 -0.013000628 0.72386992
-0.17462958 -0.024500271 0.72561997
-0.135337 -0.022469077 0.72736597
-0.18525569 -0.026465099 0.72233647
-0.17153929 -0.13886514 0.66885442
-0.15492834 -0.0077723246 0.72126669
-0.15390554 -0.0077730068 0.72132999
-0.13803998 -0.016148072 0.72509545
-0.17454644 -0.023446536 0.72527444
-0.16113771 -0.0088081704 0.72122872
-0.14783496 -0.0088182259 0.72205204
-0.15595098 -0.0077716433 0.72120345
-0.17200111 -0.017148146 0.72333497
-0.15288253 -0.0077736881 0.72139323
-0.13359828 -0.13938592 0.67136282
-0.17318968 -0.019243298 0.72395903
-0.14188692 -0.011953844 0.72346234
-0.13617489 -0.019304486 0.72626102
-0.2049388 -0.12410446 0.66188586
-0.12036002 -0.02761507 0.7252813
-0.15697341 -0.0077709612 0.72114015
-0.15185937 -0.0077743703 0.72145653
-0.1686074 -0.0129698 0.72215343
-0.12197468 -0.13643809 0.6710971
-0.17446333 -0.022393802 0.72492915
-0.16971056 -0.014012799 0.72243255
-0.11905514 -0.1354433 0.67094576
-0.17617303 -0.13777019 0.66820478
-0.096329808 -0.058209993 0.71705967
-0.17985542 -0.13669011 0.66761863
-0.097504467 -0.12440225 0.6685974
-0.14482948 -0.0098629389 0.72258502
-0.13937819 -0.14034274 0.67132556
-0.16750509 -0.011927607 0.72187448
-0.16595009 -0.13997529 0.66956788
-0.13707551 -0.017199589 0.72550488
-0.13527237 -0.021413773 0.72701865
-0.15799569 -0.0077702794 0.72107691
-0.16428106 -0.0098464983 0.72138053
-0.19076796 -0.13243791 0.66553169
-0.15083604 -0.0077750529 0.72151989
-0.17081459 -0.015056605 0.72271198
-0.13449654 -0.02564331 0.72847426
-0.095466353 -0.10546283 0.69574994
-0.14284596 -0.010908237 0.72305518
-0.16215976 -0.0088073984 0.72116548
-0.14681041 -0.0088190008 0.72211546
-0.1743803 -0.021342067 0.72458416
-0.12877032 -0.13841604 0.67133719
-0.21268286 -0.11794662 0.65935963
-0.1731074 -0.018194471 0.72361505
-0.16640364 -0.010886219 0.72159576
-0.10045969 -0.12641577 0.66908568
-0.15901779 -0.0077695986 0.72101372
-0.13443224 -0.024584886 0.72812599
-0.12803338 -0.026651846 0.72743356
-0.1498125 -0.0077757351 0.72158319
-0.17191945 -0.016101217 0.72299153
-0.19880803 -0.12824786 0.66364229
-0.13893722 -0.014049832 0.72434181
-0.13610998 -0.018252295 0.72591478
-0.12489555 -0.13743332 0.67124861
-0.13989908 -0.013001773 0.72393364
-0.19703627 -0.12929013 0.6640982
-0.13520783 -0.020359481 0.72667176
-0.09455356 -0.12239166 0.66810983
-0.11613692 -0.13444896 0.67079443
-0.17429738 -0.020291338 0.72423959
-0.13797428 -0.015099072 0.7247504
-0.13436799 -0.023527469 0.72777796
-0.11375669 -0.028569033 0.72305119
-0.15275891 -0.14119357 0.67078525
-0.10733578 -0.13043945 0.67000163
-0.16003969 -0.0077689174 0.72095048
-0.15180935 -0.1412068 0.67084807
-0.14085986 -0.011954895 0.723526
-0.15370828 -0.14118034 0.67072237
-0.14380391 -0.009863806 0.7226485
-0.20057735 -0.12720701 0.66318697
-0.14878878 -0.0077764173 0.72164649
-0.10929593 -0.13144401 0.67021531
-0.1631816 -0.0088066263 0.72110224
-0.14578569 -0.0088197747 0.72217888
-0.16530302 -0.0098456349 0.72131723
-0.15085962 -0.14122003 0.67091095
-0.1546575 -0.14116712 0.6706596
-0.13701025 -0.016149497 0.72515941
-0.17248417 -0.13885216 0.66879189
-0.1696301 -0.012968662 0.72209007
-0.13842662 -0.1403559 0.67138851
-0.17574039 -0.025552757 0.72590184
-0.16689652 -0.13996221 0.6695053
-0.19526207 -0.13033386 0.66455477
-0.10372991 -0.030448085 0.71836334
-0.1499097 -0.14123325 0.67097378
-0.10537688 -0.12943552 0.66978806
-0.17565666 -0.024498109 0.72555596
-0.15560651 -0.14115389 0.67059672
-0.19892919 -0.028271589 0.71552324
-0.16852748 -0.01192656 0.72181112
-0.17302516 -0.017146638 0.72327131
-0.18626063 -0.13454817 0.66651154
-0.13430379 -0.022471065 0.72743028
-0.20928317 -0.12101407 0.66058987
-0.17073356 -0.014011568 0.72236913
-0.13264611 -0.13939901 0.67142582
-0.096352465 -0.059254188 0.71722829
-0.14181955 -0.010909196 0.72311878
-0.18353134 -0.13561194 0.66703355
-0.17421453 -0.019241605 0.72389531
-0.17557302 -0.023444468 0.72521049
-0.16106144 -0.0077682366 0.7208873
-0.20669924 -0.1230692 0.66143292
-0.14895961 -0.1412465 0.67103666
-0.11125735 -0.13244922 0.67042923
-0.13514334 -0.019306192 0.72632515
-0.14776491 -0.0077771 0.72170985
-0.15485498 -0.0067328257 0.72092521
-0.15655535 -0.14114067 0.67053396
-0.16742572 -0.010885264 0.72153246
-0.15383266 -0.0067334161 0.72098845
-0.095859565 -0.032294933 0.71355927
-0.15587714 -0.0067322357 0.72086203
-0.15281014 -0.0067340061 0.72105163
-0.20234424 -0.12616758 0.66273224
-0.17183787 -0.015055281 0.72264844
-0.13604513 -0.017201109 0.72556895
-0.17548944 -0.022391828 0.72486526
-0.15689912 -0.0067316457 0.72079885
-0.10821602 -0.02951346 0.72074473
-0.16420327 -0.0088058542 0.721039
-0.15178746 -0.0067345975 0.72111493
-0.14476079 -0.0088205496 0.7222423
-0.14800934 -0.14125973 0.67109954
-0.13423969 -0.021415669 0.72708303
-0.15750402 -0.14112745 0.67047113
-0.18898563 -0.13348606 0.66599029
-0.17711659 -0.13775735 0.66814244
-0.14277816 -0.009864673 0.72271204
-0.10341922 -0.12843224 0.66957468
-0.16632482 -0.0098447716 0.72125399
-0.21470475 -0.031826824 0.70321631
-0.15792091 -0.0067310552 0.72073567
-0.19348545 -0.13137901 0.665012
-0.13887115 -0.013002917 0.72399735
-0.16208299 -0.0077675548 0.72082406
-0.21186051 -0.11896418 0.65974891
-0.17540593 -0.021340188 0.72452033
-0.1334617 -0.025645582 0.72853881
-0.13790864 -0.014051069 0.72440559
-0.18627024 -0.026461788 0.72224611
-0.1507646 -0.006735188 0.72117817
-0.096080899 -0.090997256 0.7076385
-0.17413175 -0.018192869 0.72355133
-0.21155362 -0.030946692 0.70618844
-0.14674082 -0.0077777822 0.72177315
-0.17294303 -0.016099801 0.72292793
-0.1398326 -0.011955948 0.72358966
-0.1470589 -0.14127298 0.67116249
-0.18079779 -0.13667737 0.66755641
-0.098505639 -0.12541451 0.66887265
-0.12781774 -0.13842903 0.67140019
-0.15845253 -0.14111425 0.67040843
-0.13694502 -0.015100402 0.72481424
-0.13339788 -0.024587061 0.72819042
-0.15894254 -0.0067304652 0.72067249
-0.13747485 -0.14036906 0.67145145
-0.16784278 -0.13994913 0.66944271
-0.13507891 -0.018253906 0.72597885
-0.11322 -0.13345507 0.67064315
-0.1210218 -0.13645087 0.67116004
-0.14974155 -0.0067357789 0.72124141
-0.14079295 -0.010910154 0.72318232
-0.13417561 -0.02036128 0.72673601
-0.16954969 -0.011925513 0.72174776
-0.1706526 -0.012967522 0.72202659
-0.095552787 -0.12340234 0.66838467
-0.17532252 -0.02028955 0.72417581
-0.094046623 -0.12105488 0.67134351
-0.19363807 -0.027367514 0.7187795
-0.20410869 -0.12512957 0.66227812
-0.13333413 -0.023529552 0.72784239
-0.16522478 -0.0088050822 0.72097582
-0.1181022 -0.135456 0.67100865
-0.16844763 -0.010884308 0.7214691
-0.14373569 -0.0088213235 0.72230572
-0.096375115 -0.060298868 0.71739691
-0.13598034 -0.01615092 0.72522336
-0.14610827 -0.14128621 0.67122537
-0.17175636 -0.014010337 0.72230566
-0.16310436 -0.007766874 0.72076088
-0.17342891 -0.1388392 0.66872948
-0.15940084 -0.14110105 0.67034566
-0.15996397 -0.0067298752 0.72060931
-0.14571658 -0.0077784648 0.72183651
-0.099273361 -0.031376556 0.7159977
-0.17404905 -0.017145131 0.72320771
-0.14871831 -0.0067363693 0.72130466
-0.13169377 -0.13941209 0.67148882
-0.12394273 -0.13744621 0.67131156
-0.14175223 -0.0098655401 0.72277558
-0.17676777 -0.025550501 0.72583777
-0.16734643 -0.0098439083 0.72119075
-0.11933294 -0.02761854 0.72537243
-0.12700422 -0.026655206 0.72752523
-0.17668355 -0.024495948 0.72549194
-0.10146281 -0.12742959 0.66936135
-0.13327044 -0.022473054 0.72749472
-0.17523919 -0.019239912 0.72383159
-0.17286097 -0.015053958 0.7225849
-0.20417261 -0.029167516 0.71229649
-0.19170639 -0.13242561 0.66546988
-0.1341116 -0.019307896 0.72638929
-0.1765994 -0.023442399 0.72514647
-0.14515747 -0.14129946 0.67128831
-0.16098522 -0.0067292857 0.72054619
