# .PCD v0.7 - Point Cloud Data file format
VERSION 0.7
FIELDS x y z rgba
SIZE 4 4 4 4
TYPE F F F U
COUNT 1 1 1 1
WIDTH 1004
HEIGHT 1
VIEWPOINT 0 0 0 1 0 0 0
POINTS 1004
DATA ascii
0.020898348 0.07610701 0.017271129 4278190080
0.022751058 0.075682871 0.017355248 4278190080
0.025213035 0.075994946 0.017376123 4278190080
0.026943095 0.076014698 0.017387405 4278190080
0.029183025 0.07626541 0.017340297 4278190080
0.030523309 0.075537115 0.017313242 4278190080
0.03281533 0.075954147 0.01737131 4278190080
0.034797419 0.075621024 0.017260391 4278190080
0.037302781 0.07613761 0.017427562 4278190080
0.038609158 0.076335825 0.017323153 4278190080
0.040900342 0.076462939 0.017358644 4278190080
0.043148644 0.075779431 0.017352989 4278190080
0.045073848 0.076113425 0.017420093 4278190080
0.047344521 0.075839482 0.017517991 4278190080
0.048542242 0.076342657 0.017613022 4278190080
0.050675236 0.075896159 0.017535629 4278190080
0.053016614 0.075928017 0.017735658 4278190080
0.05495777 0.075880289 0.017743781 4278190080
0.057048775 0.075869888 0.017915783 4278190080
0.059178427 0.075951457 0.017873047 4278190080
0.060613312 0.0760829 0.017947221 4278190080
0.062234059 0.075633228 0.01792541 4278190080
0.065310739 0.076005645 0.017912863 4278190080
0.066434309 0.07619264 0.018010329 4278190080
0.068550669 0.076261885 0.01798342 4278190080
0.070765421 0.076167822 0.01796587 4278190080
0.072905213 0.075798728 0.01797503 4278190080
0.075085588 0.076052904 0.018005291 4278190080
0.076800562 0.076089799 0.017923716 4278190080
0.078921117 0.07609272 0.017981755 4278190080
0.08079157 0.075933337 0.017959291 4278190080
0.083019339 0.076489858 0.017932145 4278190080
0.084730111 0.076079227 0.018003149 4278190080
0.086400554 0.076243743 0.017965946 4278190080
0.089243695 0.076173618 0.017989583 4278190080
0.090726152 0.076304212 0.017947702 4278190080
0.0925951 0.075993523 0.017974449 4278190080
0.094731808 0.075778745 0.018005377 4278190080
0.096369579 0.076267019 0.017900575 4278190080
0.098517351 0.076557666 0.01800072 4278190080
0.10090145 0.075774297 0.017284378 4278190080
0.10289112 0.076159246 0.017368335 4278190080
0.10448261 0.076104596 0.016510013 4278190080
0.10660567 0.075935639 0.016401408 4278190080
0.10807332 0.076151974 0.016304282 4278190080
-0.091166519 0.075362958 0.018120764 4278190080
-0.072235517 0.076252915 0.018140493 4278190080
0.071822919 0.076284505 0.018130867 4278190080
0.090736307 0.075365879 0.018119065 4278190080
-0.11264227 0.074194461 -0.017048931 4278190080
-0.11101688 0.073833182 -0.016688375 4278190080
-0.10989687 0.074051179 -0.017316906 4278190080
-0.10718878 0.07382869 -0.016916273 4278190080
-0.10127845 0.074149206 -0.016009746 4278190080
-0.09908893 0.073871866 -0.015957899 4278190080
-0.097122997 0.073591322 -0.015973624 4278190080
-0.095024757 0.074186362 -0.016071385 4278190080
-0.092654824 0.073379792 -0.015960185 4278190080
-0.091145456 0.073485307 -0.01605583 4278190080
-0.088960528 0.073959395 -0.016014447 4278190080
-0.086922392 0.074175537 -0.016008554 4278190080
-0.085240394 0.073822193 -0.016023098 4278190080
-0.083042182 0.073857263 -0.016018597 4278190080
-0.081324711 0.074321158 -0.016007446 4278190080
-0.079504929 0.074174546 -0.015994037 4278190080
-0.077377871 0.073625825 -0.016052457 4278190080
-0.07496205 0.073633239 -0.016004993 4278190080
-0.073413216 0.073939361 -0.016029673 4278190080
-0.071558513 0.07400433 -0.0160196 4278190080
-0.06930282 0.073869281 -0.015978726 4278190080
-0.067025036 0.073922612 -0.016011303 4278190080
-0.065328695 0.073912129 -0.015998382 4278190080
-0.063011855 0.073956512 -0.015931392 4278190080
-0.061330393 0.074232914 -0.015981989 4278190080
-0.059149429 0.074662641 -0.016055135 4278190080
-0.056182589 0.074915506 -0.015942363 4278190080
0.055381071 0.074558951 -0.016014485 4278190080
0.056502659 0.074306361 -0.016003994 4278190080
0.058044251 0.073116101 -0.015888063 4278190080
0.061404102 0.074442722 -0.016029282 4278190080
0.062751465 0.074037604 -0.015981218 4278190080
0.064987861 0.074219316 -0.016027628 4278190080
0.066596307 0.073923454 -0.016012851 4278190080
0.068878502 0.07385467 -0.015981019 4278190080
0.071124278 0.074003331 -0.016021196 4278190080
0.072982788 0.073944144 -0.016026609 4278190080
0.07452929 0.073629364 -0.016001804 4278190080
0.076943256 0.073625401 -0.016051518 4278190080
0.079073071 0.074174635 -0.015992295 4278190080
0.080894366 0.074317142 -0.016005643 4278190080
0.082608052 0.073854245 -0.016017882 4278190080
0.084809102 0.073821895 -0.016022472 4278190080
0.086488165 0.074174181 -0.01600606 4278190080
0.088525064 0.073962443 -0.01601419 4278190080
0.090711132 0.073484711 -0.016057996 4278190080
0.092216924 0.073377296 -0.01596101 4278190080
0.094591655 0.074188091 -0.016070841 4278190080
0.096688911 0.073592827 -0.015972625 4278190080
0.09859661 0.073690228 -0.015990196 4278190080
0.10047524 0.074206091 -0.016034467 4278190080
0.10200863 0.073804423 -0.015988071 4278190080
0.10443178 0.073377945 -0.015951363 4278190080
0.10675435 0.073521808 -0.01728778 4278190080
0.10919452 0.074521042 -0.016971318 4278190080
0.11096284 0.074137487 -0.016571697 4278190080
0.11247961 0.074331969 -0.016743662 4278190080
-0.11298066 0.074079253 -0.014542687 4278190080
-0.11073425 0.074395217 -0.015095919 4278190080
-0.1089746 0.074270882 -0.014636013 4278190080
-0.10765625 0.074363559 -0.014854908 4278190080
-0.10584029 0.074086919 -0.014541735 4278190080
-0.10317405 0.073848136 -0.014865543 4278190080
-0.10168412 0.073770732 -0.014568736 4278190080
-0.095531158 0.074849404 -0.015873505 4278190080
-0.09206941 0.073490299 -0.015862463 4278190080
-0.089409225 0.073477209 -0.015870092 4278190080
-0.087757193 0.074564792 -0.015854461 4278190080
-0.083232246 0.073117405 -0.01587656 4278190080
-0.063996084 0.074328162 -0.015847137 4278190080
-0.061225668 0.073454708 -0.015850801 4278190080
-0.058450434 0.073517241 -0.015567392 4278190080
-0.057003662 0.073893785 -0.015723689 4278190080
-0.055237342 0.073672988 -0.015531991 4278190080
-0.053201266 0.074027039 -0.015582457 4278190080
-0.051400021 0.074276805 -0.015475159 4278190080
-0.049391773 0.073775724 -0.01538669 4278190080
-0.047129165 0.074181192 -0.015471569 4278190080
-0.044723414 0.073968284 -0.015270233 4278190080
-0.04347432 0.074097976 -0.015273691 4278190080
-0.041317437 0.074082367 -0.015300441 4278190080
-0.038793944 0.073691122 -0.015305934 4278190080
-0.037420988 0.074031793 -0.0152012 4278190080
-0.035242636 0.073561482 -0.015193105 4278190080
-0.033109408 0.074116074 -0.015178787 4278190080
-0.031451251 0.073946789 -0.015224208 4278190080
-0.029383335 0.073697604 -0.015190348 4278190080
-0.027453454 0.074166097 -0.015240925 4278190080
-0.025168298 0.074129209 -0.015180437 4278190080
-0.023216981 0.074125372 -0.015162836 4278190080
-0.021114523 0.074233674 -0.015240788 4278190080
-0.019312249 0.074055046 -0.015205898 4278190080
-0.017197059 0.07405106 -0.015326331 4278190080
-0.015070686 0.074110843 -0.015284213 4278190080
-0.013797108 0.074207045 -0.015126044 4278190080
-0.011183561 0.073453173 -0.015164822 4278190080
-0.0093556633 0.073871262 -0.015173151 4278190080
-0.0074472632 0.074169517 -0.015313129 4278190080
-0.0050916979 0.074104965 -0.015170144 4278190080
-0.0027812305 0.073582269 -0.015356392 4278190080
-0.0011845693 0.074331135 -0.015156806 4278190080
0.00031701138 0.074205562 -0.015355282 4278190080
0.002389722 0.074095502 -0.015150644 4278190080
0.0045639067 0.07437443 -0.015289861 4278190080
0.0066738841 0.073512539 -0.015216072 4278190080
0.0088136801 0.07387092 -0.015182341 4278190080
0.01085253 0.073973939 -0.015285194 4278190080
0.01351028 0.074137263 -0.015338582 4278190080
0.014809574 0.074088655 -0.015141298 4278190080
0.016234659 0.073938221 -0.01524023 4278190080
0.018809777 0.073950417 -0.015128997 4278190080
0.020699359 0.074026167 -0.015269733 4278190080
0.022634447 0.073873743 -0.015220612 4278190080
0.024677111 0.074138202 -0.015234645 4278190080
0.026933016 0.073875055 -0.01521194 4278190080
0.028941575 0.074162729 -0.015098341 4278190080
0.031111628 0.074118055 -0.0151924 4278190080
0.032669265 0.073998995 -0.015288652 4278190080
0.034636877 0.073666736 -0.015266071 4278190080
0.036990173 0.074076258 -0.015210052 4278190080
0.038688548 0.074044347 -0.015243228 4278190080
0.041250452 0.074250549 -0.015332247 4278190080
0.043085955 0.073896907 -0.015328516 4278190080
0.044515442 0.073986024 -0.015434331 4278190080
0.046596758 0.074229226 -0.015409927 4278190080
0.048736989 0.074051484 -0.015490817 4278190080
0.050704602 0.074223928 -0.015499808 4278190080
0.052503899 0.074018642 -0.015608655 4278190080
0.05502779 0.07386262 -0.015678212 4278190080
0.056572247 0.074304678 -0.015615705 4278190080
0.058874771 0.074578352 -0.015730856 4278190080
0.061010584 0.074020587 -0.015796015 4278190080
0.062894203 0.073733725 -0.015719382 4278190080
0.064276494 0.073731519 -0.015844991 4278190080
0.082825519 0.073116265 -0.01587048 4278190080
0.087323494 0.074564733 -0.015854476 4278190080
0.089007072 0.073495686 -0.015861494 4278190080
0.091630198 0.073482372 -0.015864907 4278190080
0.093050785 0.072978057 -0.015851198 4278190080
0.095094644 0.074874856 -0.015870435 4278190080
0.098793484 0.074248411 -0.015871791 4278190080
0.10060254 0.074333467 -0.014900327 4278190080
0.10260473 0.074318878 -0.015299737 4278190080
0.10540915 0.07408686 -0.014536132 4278190080
0.1073171 0.074065506 -0.014546365 4278190080
0.10851043 0.073618963 -0.014474645 4278190080
0.10994952 0.073438056 -0.014334112 4278190080
-0.1114037 0.073611543 -0.013337397 4278190080
-0.10917324 0.073905751 -0.012665995 4278190080
0.10699794 0.073947832 -0.012866765 4278190080
0.10926566 0.0739417 -0.012814929 4278190080
0.11058395 0.073933557 -0.012446191 4278190080
0.11234978 0.073418804 -0.013746679 4278190080
-0.11271968 0.074650384 -0.011143461 4278190080
-0.11156125 0.073973082 -0.011755936 4278190080
-0.10900939 0.074502699 -0.01101071 4278190080
-0.10795119 0.073269658 -0.010583621 4278190080
0.1067969 0.074209608 -0.010700434 4278190080
0.10906517 0.074236393 -0.010622904 4278190080
0.11070877 0.074552089 -0.01059413 4278190080
-0.11053409 0.073264129 -0.0085969865 4278190080
-0.10944886 0.07375925 -0.0088811619 4278190080
0.10737435 0.073551811 -0.0094830841 4278190080
0.10872327 0.073950917 -0.0088310447 4278190080
0.11049792 0.07407812 -0.0086613027 4278190080
-0.11099067 0.07402999 -0.0069933678 4278190080
-0.10895613 0.07446637 -0.0067164539 4278190080
-0.10810836 0.073309369 -0.0062962095 4278190080
0.10755447 0.074608125 -0.0064218938 4278190080
0.10926262 0.074101314 -0.0070189731 4278190080
0.11000458 0.074853308 -0.005944699 4278190080
-0.10885826 0.07399521 -0.0043729059 4278190080
-0.10752997 0.073865272 -0.0040457542 4278190080
0.10736795 0.073989689 -0.0048887129 4278190080
0.10874707 0.073680624 -0.0046066935 4278190080
0.11049915 0.074112743 -0.004213349 4278190080
-0.11105561 0.074104227 -0.0026905884 4278190080
-0.10901224 0.074354187 -0.0024294942 4278190080
-0.10782974 0.073532231 -0.0027206887 4278190080
0.10964734 0.074511819 -0.0021562278 4278190080
0.1114457 0.073702611 -0.0038394034 4278190080
-0.10922428 0.074173786 -0.00081332732 4278190080
-0.10813554 0.073361136 -0.0018444509 4278190080
0.10729907 0.074198462 -0.00040195906 4278190080
0.10886492 0.073539972 -0.0006602066 4278190080
0.11043815 0.074128248 -6.3986728e-05 4278190080
-0.11083615 0.073894121 0.002115577 4278190080
-0.10886704 0.074539699 0.0017793026 4278190080
-0.10770412 0.074019797 0.0018365231 4278190080
0.1073691 0.0740963 0.00061558158 4278190080
0.10818885 0.073318698 0.0014545616 4278190080
0.11025182 0.074790828 0.00063988531 4278190080
-0.11093715 0.074510761 0.002541482 4278190080
-0.10900287 0.074223168 0.0028293899 4278190080
-0.10768317 0.074071579 0.0030713635 4278190080
0.1094674 0.074483864 0.0027329321 4278190080
0.11126939 0.07330934 0.0036735232 4278190080
-0.10939106 0.073626667 0.0043664081 4278190080
-0.10810801 0.073719539 0.0043815668 4278190080
0.10748214 0.073840797 0.0049198414 4278190080
0.1088884 0.073603496 0.0047486681 4278190080
0.11040153 0.074261233 0.004713153 4278190080
-0.11093728 0.074511983 0.0074355071 4278190080
-0.10900568 0.074481748 0.0068737678 4278190080
-0.10785135 0.073200285 0.0070014144 4278190080
0.10753185 0.074727535 0.0071965745 4278190080
0.10939997 0.07403174 0.0070236023 4278190080
-0.11240359 0.074566878 0.0094019454 4278190080
-0.11081185 0.073081143 0.0086047929 4278190080
-0.10905789 0.073847555 0.0091321236 4278190080
-0.10740749 0.07345099 0.0092105549 4278190080
0.10730456 0.073653497 0.009698851 4278190080
0.10926566 0.0739417 0.0087374104 4278190080
0.11043627 0.074058786 0.008847123 4278190080
-0.11253829 0.073962756 0.011383852 4278190080
-0.11103012 0.073919751 0.011971613 4278190080
-0.10901015 0.074502617 0.011198813 4278190080
-0.10800791 0.073453665 0.010956449 4278190080
0.10681768 0.074311651 0.010903 4278190080
0.10925906 0.074242108 0.010697238 4278190080
0.11125145 0.074179329 0.010295777 4278190080
-0.10898391 0.073859878 0.013042741 4278190080
0.10722314 0.074065842 0.012784678 4278190080
0.1091529 0.073956661 0.013050681 4278190080
0.11077016 0.073882759 0.012739375 4278190080
-0.11086728 0.073983468 0.014568923 4278190080
-0.10938621 0.074019276 0.015566943 4278190080
-0.10757358 0.074410602 0.014986392 4278190080
-0.10615554 0.073324494 0.015715033 4278190080
0.10571007 0.07439559 0.015653161 4278190080
0.10698242 0.074445643 0.015386028 4278190080
0.1085538 0.074198231 0.015115017 4278190080
-0.10829809 0.073018529 0.016298739 4278190080
-0.10715549 0.074252851 0.01651377 4278190080
-0.10528541 0.073340759 0.017033596 4278190080
-0.1028349 0.074355654 0.017069364 4278190080
-0.10139438 0.074202277 0.017622894 4278190080
-0.099303864 0.074323043 0.017953863 4278190080
-0.097027749 0.0742146 0.017992398 4278190080
-0.094976217 0.073808946 0.017972186 4278190080
-0.093904316 0.074362673 0.018042987 4278190080
-0.091049641 0.073799223 0.018014867 4278190080
-0.089232139 0.074066058 0.017946783 4278190080
-0.087000594 0.073789962 0.017991606 4278190080
-0.085217886 0.074045874 0.017980454 4278190080
-0.082927175 0.073705845 0.017997898 4278190080
-0.081187464 0.073992424 0.017983364 4278190080
-0.079132818 0.074097961 0.017958065 4278190080
-0.076928563 0.073349528 0.017922698 4278190080
-0.075176328 0.073818684 0.018006476 4278190080
-0.073480509 0.073560946 0.017992584 4278190080
-0.070991024 0.073987216 0.01800938 4278190080
-0.069146924 0.074549094 0.018004097 4278190080
-0.067168482 0.073775157 0.017949644 4278190080
-0.065196551 0.073815852 0.017973853 4278190080
-0.062928401 0.073792033 0.017921872 4278190080
-0.061466645 0.07393682 0.017813785 4278190080
-0.05846848 0.074349649 0.017841293 4278190080
-0.057350349 0.074454851 0.0177026 4278190080
-0.055298399 0.074125692 0.017644664 4278190080
-0.053336408 0.073435724 0.017590888 4278190080
-0.051259093 0.073793493 0.017478984 4278190080
-0.049780533 0.074278958 0.017424969 4278190080
-0.046795897 0.074197859 0.017445244 4278190080
-0.045107901 0.073909536 0.017250583 4278190080
-0.043359626 0.07429029 0.017297501 4278190080
-0.041905947 0.073755428 0.017088436 4278190080
-0.039167717 0.073916391 0.01724463 4278190080
-0.037184976 0.074267581 0.017174585 4278190080
-0.035390105 0.07366699 0.017176408 4278190080
-0.033308662 0.074064314 0.017221926 4278190080
-0.031073866 0.074833013 0.017275689 4278190080
-0.02889443 0.07374049 0.017152598 4278190080
-0.027711045 0.07411848 0.017306132 4278190080
-0.024869528 0.074115142 0.017174415 4278190080
-0.023074323 0.07388138 0.017278826 4278190080
-0.020904245 0.073832333 0.017152635 4278190080
-0.019810144 0.074107707 0.017313428 4278190080
-0.017062429 0.074066959 0.017223982 4278190080
-0.015190871 0.074055113 0.017158732 4278190080
-0.012785029 0.073280543 0.016990362 4278190080
-0.011249546 0.073621728 0.017278094 4278190080
-0.0088951588 0.073578134 0.017065329 4278190080
-0.0070415693 0.074056126 0.017355023 4278190080
-0.0053947475 0.074024662 0.017221972 4278190080
-0.0032798606 0.073785983 0.017171912 4278190080
-0.00071626046 0.073647253 0.017242895 4278190080
0.00042300334 0.073625661 0.017228303 4278190080
0.0028292504 0.073806755 0.017271763 4278190080
0.0048643784 0.074046008 0.017216936 4278190080
0.0067559024 0.074168049 0.0170855 4278190080
0.0086044669 0.073496386 0.017211972 4278190080
0.010998752 0.073548324 0.017211197 4278190080
0.012331102 0.073880143 0.017178124 4278190080
0.014393067 0.073820159 0.017227156 4278190080
0.016533226 0.074121796 0.017302228 4278190080
0.019216988 0.073699929 0.017150937 4278190080
0.020270491 0.074338309 0.017155875 4278190080
0.022694552 0.07402578 0.017264917 4278190080
0.024558613 0.073909111 0.017229972 4278190080
0.026944 0.073487163 0.017140655 4278190080
0.028232539 0.073979586 0.0173441 4278190080
0.030564649 0.074452437 0.017291524 4278190080
0.032952521 0.073910378 0.017253486 4278190080
0.0345851 0.073544599 0.017166065 4278190080
0.03657037 0.074424304 0.017287647 4278190080
0.038741738 0.073848218 0.017251164 4278190080
0.041517679 0.074686967 0.017389325 4278190080
0.043145578 0.07421992 0.017444152 4278190080
0.044692215 0.0737518 0.017360287 4278190080
0.04662716 0.074297391 0.017375186 4278190080
0.049536798 0.073988393 0.017564548 4278190080
0.051295951 0.073784858 0.017506488 4278190080
0.053222243 0.073959872 0.01772487 4278190080
0.054994922 0.074040502 0.017703941 4278190080
0.057286035 0.074294873 0.017747087 4278190080
0.058219537 0.074366666 0.017643673 4278190080
0.06112916 0.073671967 0.017963303 4278190080
0.062642895 0.0736899 0.017860146 4278190080
0.064793624 0.073803581 0.017926453 4278190080
0.0667345 0.073774882 0.017948529 4278190080
0.068712659 0.074550495 0.018007953 4278190080
0.070555404 0.073989421 0.018007748 4278190080
0.073047817 0.073557369 0.01799049 4278190080
0.074743502 0.073816061 0.018006504 4278190080
0.076496392 0.073348992 0.017923934 4278190080
0.078699477 0.074096508 0.017958267 4278190080
0.080752291 0.073992833 0.01798504 4278190080
0.082519442 0.073602587 0.017977763 4278190080
0.084784217 0.07404726 0.01798038 4278190080
0.086567841 0.073791616 0.017992266 4278190080
0.088796139 0.074069642 0.01794799 4278190080
0.090616532 0.073798776 0.018016038 4278190080
0.093469925 0.074366875 0.018038822 4278190080
0.094540894 0.073810823 0.017971411 4278190080
0.096610256 0.074231096 0.017995847 4278190080
0.098910764 0.074308522 0.017872941 4278190080
0.10082497 0.07416153 0.017779451 4278190080
0.10262559 0.074267469 0.017139079 4278190080
0.10482576 0.073422492 0.016385712 4278190080
0.10646641 0.073767439 0.016480444 4278190080
0.10920387 0.074324943 0.016136019 4278190080
-0.077308051 0.073145844 0.018134503 4278190080
-0.074272297 0.073491149 0.018120913 4278190080
0.073816814 0.073492035 0.018125741 4278190080
0.076876916 0.073149838 0.018133251 4278190080
0.082316197 0.074336864 0.018121077 4278190080
-0.11284208 0.072362579 -0.01715338 4278190080
-0.11167427 0.071795478 -0.017040668 4278190080
-0.10833366 0.071882017 -0.016324906 4278190080
-0.10734411 0.072723694 -0.017385034 4278190080
-0.10619176 0.071188457 -0.016382305 4278190080
-0.10236724 0.072555579 -0.015946208 4278190080
-0.10116652 0.071953245 -0.016108839 4278190080
-0.099340849 0.07181108 -0.016046513 4278190080
-0.097045474 0.071972914 -0.016054314 4278190080
-0.095435791 0.072093204 -0.016021261 4278190080
-0.092789993 0.071767032 -0.01599854 4278190080
-0.09147387 0.071497083 -0.016005239 4278190080
-0.088953346 0.071918532 -0.016043102 4278190080
-0.087463275 0.071692728 -0.016048219 4278190080
-0.085084774 0.071867742 -0.016074045 4278190080
-0.083140604 0.071579583 -0.015973968 4278190080
-0.081377111 0.071770146 -0.016026627 4278190080
-0.079177044 0.071678273 -0.015976695 4278190080
-0.077100106 0.07188379 -0.016031457 4278190080
-0.07485833 0.071912877 -0.016063673 4278190080
-0.072979212 0.072084382 -0.016011449 4278190080
-0.07123711 0.071822092 -0.016012285 4278190080
-0.068708494 0.071742259 -0.016027577 4278190080
-0.066901699 0.071780264 -0.016020739 4278190080
-0.065243728 0.072459124 -0.016006855 4278190080
-0.063496538 0.072150178 -0.015998689 4278190080
-0.061190184 0.072358616 -0.015988318 4278190080
-0.055415358 0.07289096 -0.015895991 4278190080
0.061165348 0.071678981 -0.016032327 4278190080
0.062483143 0.072356842 -0.015992669 4278190080
0.064950004 0.071814738 -0.015936753 4278190080
0.066509679 0.071860336 -0.01602117 4278190080
0.068275645 0.071740329 -0.016029425 4278190080
0.070803054 0.071820632 -0.016010303 4278190080
0.072545871 0.072084665 -0.016011786 4278190080
0.074424826 0.071915589 -0.016066281 4278190080
0.076666355 0.071884088 -0.016032193 4278190080
0.078745648 0.07168369 -0.015976338 4278190080
0.080945425 0.071770951 -0.016027061 4278190080
0.082709305 0.071581222 -0.015976714 4278190080
0.084652118 0.071868069 -0.016075565 4278190080
0.087031245 0.071691655 -0.016049098 4278190080
0.088518567 0.071917824 -0.016044108 4278190080
0.090948321 0.071535386 -0.016023465 4278190080
0.092353672 0.071768194 -0.015996508 4278190080
0.095002986 0.072091974 -0.016019503 4278190080
0.096612126 0.071972057 -0.016053505 4278190080
0.098805673 0.072243921 -0.016047237 4278190080
0.10084418 0.071793757 -0.016063027 4278190080
0.10293899 0.071354248 -0.015974073 4278190080
0.10703802 0.072142728 -0.017250804 4278190080
0.10831002 0.072157763 -0.016853787 4278190080
0.11090968 0.07198602 -0.016820382 4278190080
0.11272833 0.072197266 -0.016581057 4278190080
-0.11356556 0.071221285 -0.015167952 4278190080
-0.11144903 0.072329804 -0.014467354 4278190080
-0.10947333 0.071663126 -0.015059461 4278190080
-0.10770451 0.071502432 -0.014630198 4278190080
-0.10559978 0.072339371 -0.014706097 4278190080
-0.1030962 0.071829885 -0.015121281 4278190080
-0.10109317 0.071613312 -0.014995684 4278190080
-0.099210612 0.071386792 -0.015848441 4278190080
-0.093479209 0.072964527 -0.015852822 4278190080
-0.091928445 0.072379865 -0.01584862 4278190080
-0.08487954 0.071816362 -0.015876545 4278190080
-0.078543626 0.072423793 -0.01588249 4278190080
-0.064851157 0.07173828 -0.01573587 4278190080
-0.06298051 0.072632357 -0.015774755 4278190080
-0.061751548 0.071827635 -0.01575809 4278190080
-0.059327621 0.071547262 -0.015634051 4278190080
-0.057287939 0.071874045 -0.015523905 4278190080
-0.055684444 0.071374953 -0.01550848 4278190080
-0.053597149 0.071860135 -0.015476823 4278190080
-0.05136269 0.072108828 -0.015451704 4278190080
-0.049158365 0.071769349 -0.015437423 4278190080
-0.04721662 0.071889192 -0.015206322 4278190080
-0.045361593 0.072155215 -0.015348818 4278190080
-0.043226663 0.071689606 -0.015100174 4278190080
-0.040659089 0.071633831 -0.015064525 4278190080
-0.039085366 0.071969852 -0.015240411 4278190080
-0.037088796 0.071885414 -0.015078944 4278190080
-0.035382185 0.071943514 -0.015041896 4278190080
-0.032960005 0.071814522 -0.015265107 4278190080
-0.031050926 0.071797796 -0.015084121 4278190080
-0.028773611 0.071878895 -0.015006981 4278190080
-0.027368225 0.072036386 -0.015095548 4278190080
-0.02499784 0.072012991 -0.015205353 4278190080
-0.022922363 0.072310679 -0.015111633 4278190080
-0.020981574 0.072153971 -0.015178929 4278190080
-0.019352973 0.071512513 -0.015094316 4278190080
-0.016743332 0.07190571 -0.015152037 4278190080
-0.015145677 0.071672499 -0.015152482 4278190080
-0.012956484 0.072295159 -0.015103514 4278190080
-0.011054644 0.071579337 -0.015184755 4278190080
-0.0091339611 0.071956106 -0.015090222 4278190080
-0.0074457536 0.071744896 -0.015108089 4278190080
-0.0053477436 0.071764767 -0.015075625 4278190080
-0.0030740211 0.071799681 -0.015023261 4278190080
-0.00087224098 0.071719766 -0.015113558 4278190080
0.00098914641 0.07164488 -0.015037919 4278190080
0.0027810177 0.071723789 -0.015141954 4278190080
0.0050323787 0.071714438 -0.015114976 4278190080
0.0069112573 0.071785331 -0.01509505 4278190080
0.0087590832 0.072120957 -0.015034221 4278190080
0.010609331 0.071968898 -0.015081865 4278190080
0.012896573 0.072137661 -0.015098804 4278190080
0.015147905 0.071570903 -0.014973382 4278190080
0.016350895 0.071895458 -0.015102029 4278190080
0.019201741 0.071150072 -0.015105397 4278190080
0.020667411 0.071847416 -0.015040809 4278190080
0.022614984 0.072174445 -0.015086757 4278190080
0.024601649 0.072036125 -0.015208115 4278190080
0.027066041 0.071879044 -0.015158189 4278190080
0.028469544 0.071938753 -0.015071787 4278190080
0.030737955 0.071584128 -0.014987538 4278190080
0.032428835 0.071731247 -0.015099116 4278190080
0.035098996 0.071910821 -0.01512737 4278190080
0.036840718 0.072037823 -0.015080148 4278190080
0.03884102 0.072185583 -0.015086189 4278190080
0.040287666 0.071551435 -0.015161023 4278190080
0.042675931 0.071565747 -0.015174563 4278190080
0.044829987 0.072020896 -0.015221566 4278190080
0.047040422 0.071897864 -0.015223335 4278190080
0.048833493 0.071581945 -0.015277371 4278190080
0.050780647 0.07212615 -0.015448128 4278190080
0.052970231 0.071766809 -0.01548022 4278190080
0.054890845 0.07209748 -0.015616423 4278190080
0.056957528 0.072137184 -0.015619084 4278190080
0.058617596 0.07161998 -0.015710874 4278190080
0.060534153 0.072157584 -0.015638238 4278190080
0.063676812 0.072583623 -0.01581469 4278190080
0.064547069 0.072232418 -0.015761508 4278190080
0.078116812 0.072429754 -0.015879033 4278190080
0.08444149 0.071850158 -0.015872462 4278190080
0.091618009 0.071793593 -0.015860168 4278190080
0.10112116 0.072127573 -0.014597723 4278190080
0.10286961 0.071728982 -0.014771044 4278190080
0.10529087 0.072147749 -0.014683288 4278190080
0.10671085 0.072592862 -0.01445321 4278190080
0.10857453 0.072263442 -0.014964752 4278190080
0.11059351 0.072347239 -0.014940113 4278190080
0.11244555 0.071863659 -0.014817574 4278190080
-0.11223783 0.072097816 -0.013099283 4278190080
-0.11156431 0.071576752 -0.013881475 4278190080
-0.10901043 0.071887873 -0.013210227 4278190080
-0.10729962 0.071724869 -0.012536421 4278190080
0.10776249 0.072700791 -0.013524026 4278190080
0.10856012 0.071883097 -0.01262214 4278190080
0.11040173 0.071460329 -0.013599083 4278190080
-0.11223966 0.071391977 -0.010301787 4278190080
-0.112188 0.072739638 -0.010495245 4278190080
-0.10772459 0.072797753 -0.009917438 4278190080
0.1066941 0.071669079 -0.011095941 4278190080
0.11118809 0.071925119 -0.010164261 4278190080
-0.11112109 0.071826093 -0.008241266 4278190080
-0.10935572 0.072067313 -0.0085160015 4278190080
-0.10761096 0.071108259 -0.0090272725 4278190080
0.10857377 0.071957901 -0.0087466883 4278190080
0.11075488 0.072173275 -0.0097638667 4278190080
-0.10984238 0.072373398 -0.0065517719 4278190080
-0.10730808 0.072733201 -0.0077916826 4278190080
0.10853209 0.071886949 -0.0072652344 4278190080
-0.11247209 0.072161026 -0.005191559 4278190080
-0.11217859 0.071727373 -0.0046899612 4278190080
-0.10962774 0.072074562 -0.0044157794 4278190080
-0.10766699 0.071955122 -0.0046981717 4278190080
0.10880706 0.07200437 -0.0043610302 4278190080
0.11100716 0.072018102 -0.0051875706 4278190080
-0.11107477 0.071886316 -0.0027064381 4278190080
0.10779324 0.071685173 -0.003662735 4278190080
0.11128686 0.07242272 -0.0030638278 4278190080
-0.11223966 0.071391977 0.00011647609 4278190080
-0.10938655 0.072096623 -0.00054197223 4278190080
-0.10770964 0.07204745 -0.00043496501 4278190080
0.10634342 0.071033992 -0.00098070491 4278190080
0.10867219 0.072238877 -0.00062033325 4278190080
0.11091612 0.072575785 -0.00030964628 4278190080
-0.11268909 0.071227051 0.00051772583 4278190080
-0.11164685 0.071244933 0.0020866392 4278190080
-0.11005952 0.072018117 0.0012519655 4278190080
-0.10762253 0.071861722 0.00058642012 4278190080
0.10625324 0.07224194 0.00066506845 4278190080
0.10894907 0.072307527 0.00081556023 4278190080
0.11074069 0.072409369 0.0003923474 4278190080
-0.11230324 0.071193911 0.0034139452 4278190080
-0.1106663 0.072276659 0.0028762813 4278190080
-0.10979283 0.071514361 0.0039368565 4278190080
-0.10761581 0.071642078 0.0040120776 4278190080
0.10745458 0.072124757 0.003345221 4278190080
0.10914472 0.071937695 0.0040062759 4278190080
0.11110652 0.071899369 0.0027363596 4278190080
-0.11241751 0.071805492 0.0052067111 4278190080
-0.11050542 0.072482862 0.0057359035 4278190080
-0.10959213 0.072411731 0.0046096393 4278190080
-0.1076657 0.071952589 0.0048501338 4278190080
0.10786227 0.072146751 0.0048648473 4278190080
0.110828 0.072491683 0.0050740684 4278190080
-0.11165567 0.072061695 0.0079382639 4278190080
-0.10987958 0.072011702 0.007024854 4278190080
0.10870413 0.072052866 0.0073973928 4278190080
0.11166531 0.071017422 0.0061482186 4278190080
-0.11052223 0.071483649 0.0086192172 4278190080
-0.10938829 0.071724698 0.0090070423 4278190080
-0.10766582 0.071949132 0.0096253436 4278190080
0.10859258 0.071902126 0.0092957905 4278190080
0.1112038 0.072124965 0.0097918641 4278190080
-0.11226539 0.071919091 0.010579304 4278190080
0.10680257 0.071368672 0.011221586 4278190080
0.1109338 0.071814895 0.011054968 4278190080
-0.10952903 0.071899973 0.013200048 4278190080
-0.10722644 0.071096517 0.012898384 4278190080
0.10838792 0.071948692 0.013017101 4278190080
-0.11039879 0.071638606 0.014912514 4278190080
-0.11015236 0.071958311 0.014234213 4278190080
-0.10678635 0.071967572 0.014731934 4278190080
-0.1055515 0.072593577 0.015428452 4278190080
0.10524215 0.071886674 0.015866939 4278190080
0.1071931 0.072769918 0.014383878 4278190080
0.10911713 0.071322896 0.016089944 4278190080
0.11028322 0.072401643 0.0147413 4278190080
-0.10845592 0.072589464 0.016407041 4278190080
-0.10630442 0.071206756 0.016502706 4278190080
-0.10572618 0.072588459 0.016279904 4278190080
-0.10385078 0.071863435 0.016884377 4278190080
-0.10150889 0.071539022 0.017239055 4278190080
-0.099403247 0.071730413 0.017953491 4278190080
-0.096951053 0.071924552 0.01796015 4278190080
-0.09548565 0.071952559 0.017983614 4278190080
-0.093539558 0.071872495 0.018015971 4278190080
-0.091164865 0.072039716 0.017987223 4278190080
-0.089505009 0.071911037 0.017989216 4278190080
-0.087212466 0.072195344 0.017988825 4278190080
-0.085008875 0.072012357 0.017989438 4278190080
-0.083572075 0.0713479 0.017991971 4278190080
-0.08176019 0.072318144 0.017939268 4278190080
-0.079099678 0.071990356 0.01802678 4278190080
-0.077145196 0.072268508 0.017990557 4278190080
-0.074988283 0.071606696 0.017954526 4278190080
-0.073161736 0.071859851 0.017956302 4278190080
-0.071526885 0.071826085 0.018020287 4278190080
-0.069251463 0.072367735 0.018019177 4278190080
-0.067212515 0.07191655 0.017970972 4278190080
-0.065446302 0.072165787 0.018020539 4278190080
-0.063301615 0.071773596 0.017788051 4278190080
-0.06129856 0.072087258 0.01779704 4278190080
-0.058943912 0.072250888 0.01768917 4278190080
-0.056958303 0.071858108 0.01758243 4278190080
-0.05473372 0.072069958 0.017523371 4278190080
-0.053671911 0.072218925 0.01753494 4278190080
-0.051273234 0.072066739 0.017424541 4278190080
-0.049230639 0.071955256 0.017378613 4278190080
-0.047126014 0.071880408 0.017190566 4278190080
-0.045357306 0.072109371 0.017221959 4278190080
-0.043368988 0.072112143 0.017193431 4278190080
-0.041296992 0.071783036 0.017114995 4278190080
-0.038921054 0.071973801 0.017091611 4278190080
-0.037079562 0.072369933 0.017144743 4278190080
-0.035392337 0.071796015 0.017106302 4278190080
-0.033521384 0.071815848 0.017064644 4278190080
-0.03111358 0.071590945 0.017053442 4278190080
-0.029138502 0.071771093 0.017166313 4278190080
-0.027164174 0.072196156 0.017096683 4278190080
-0.025045272 0.071916543 0.017041041 4278190080
-0.022366699 0.07161893 0.01715496 4278190080
-0.021423949 0.071293898 0.016964553 4278190080
-0.019817511 0.071971349 0.017044036 4278190080
-0.01705073 0.071716338 0.017064907 4278190080
-0.014899064 0.071757235 0.017058654 4278190080
-0.013147681 0.072357237 0.017193787 4278190080
-0.01120833 0.07209596 0.017176671 4278190080
-0.0092376452 0.071533449 0.017030012 4278190080
-0.0072352309 0.071569137 0.017020235 4278190080
-0.0049269022 0.071728811 0.017062344 4278190080
-0.0027599693 0.072130501 0.017043201 4278190080
-0.0010094419 0.071731076 0.017070135 4278190080
0.00069502776 0.071643747 0.016963085 4278190080
0.0024818298 0.072152875 0.017135536 4278190080
0.0047002626 0.071675979 0.017012097 4278190080
0.0072782976 0.07146956 0.017010856 4278190080
0.0089761578 0.071433708 0.017072538 4278190080
0.010742233 0.071601868 0.016852457 4278190080
0.012917465 0.072412349 0.017011447 4278190080
0.014435169 0.071695 0.017107565 4278190080
0.016658479 0.071471535 0.01701114 4278190080
0.019053003 0.071927585 0.017066313 4278190080
0.020376598 0.071941294 0.016957942 4278190080
0.022082169 0.071776263 0.016868768 4278190080
0.02476266 0.071756564 0.017091634 4278190080
0.026949739 0.072133332 0.017018398 4278190080
0.028822685 0.071807727 0.01707427 4278190080
0.030572141 0.071578562 0.016982341 4278190080
0.032771803 0.071930133 0.017063433 4278190080
0.03484029 0.071842231 0.016920334 4278190080
0.036546838 0.072324812 0.017185697 4278190080
0.038757857 0.071861647 0.017056417 4278190080
0.041249987 0.071898192 0.017215019 4278190080
0.042683832 0.071738429 0.017075842 4278190080
0.044995219 0.071859084 0.017130796 4278190080
0.046844073 0.07186681 0.017355939 4278190080
0.048715405 0.071895257 0.01724604 4278190080
0.0506033 0.071921609 0.017283253 4278190080
0.052926484 0.072299197 0.01738113 4278190080
0.054862395 0.072179727 0.01749064 4278190080
0.056718621 0.071770243 0.01764093 4278190080
0.058507085 0.072210081 0.017715288 4278190080
0.060565613 0.071923994 0.017815899 4278190080
0.062697195 0.071675152 0.017899534 4278190080
0.064868994 0.072014123 0.017951755 4278190080
0.066778339 0.071898527 0.017977277 4278190080
0.06881991 0.072366387 0.018020833 4278190080
0.07109572 0.071827412 0.018021522 4278190080
0.072728425 0.071861647 0.017957076 4278190080
0.074554645 0.071606629 0.017957715 4278190080
0.076714158 0.072267525 0.017989086 4278190080
0.078664146 0.071988687 0.018028766 4278190080
0.081326179 0.072318077 0.017936407 4278190080
0.083137877 0.071343169 0.017992295 4278190080
0.084574819 0.072012931 0.017989306 4278190080
0.086773947 0.072197311 0.017991753 4278190080
0.089070745 0.071910992 0.017989907 4278190080
0.090661325 0.071905337 0.017999278 4278190080
0.09309186 0.071872286 0.018017782 4278190080
0.095052563 0.071952656 0.017983345 4278190080
0.096593283 0.072116673 0.017946886 4278190080
0.098819025 0.071820304 0.017959742 4278190080
0.10070775 0.072071493 0.017491182 4278190080
0.10274649 0.071846791 0.017472655 4278190080
0.10456108 0.072001122 0.01655473 4278190080
0.10642745 0.072126925 0.016420521 4278190080
-0.10105398 0.072187535 0.018129406 4278190080
-0.079523884 0.071953326 0.018138481 4278190080
0.079081334 0.071949884 0.018140426 4278190080
0.10059217 0.07218872 0.018135427 4278190080
-0.11300693 0.069731511 -0.017314581 4278190080
-0.11102618 0.069915242 -0.016861336 4278190080
-0.1094602 0.07010518 -0.01698797 4278190080
-0.10707392 0.070044763 -0.016657842 4278190080
-0.10484269 0.069128878 -0.016017763 4278190080
-0.10327146 0.070004508 -0.015979212 4278190080
-0.10122126 0.068976872 -0.016125409 4278190080
-0.099371016 0.069692492 -0.016010208 4278190080
-0.097406827 0.069957383 -0.015973734 4278190080
-0.094858371 0.069360338 -0.015991313 4278190080
-0.093197376 0.069829464 -0.016040169 4278190080
-0.091324627 0.070291959 -0.01606111 4278190080
-0.088913769 0.070314154 -0.015988357 4278190080
-0.086917907 0.070182003 -0.016010586 4278190080
-0.085353002 0.069980569 -0.015985148 4278190080
-0.083560161 0.070040673 -0.015940521 4278190080
-0.081162825 0.069864914 -0.016044265 4278190080
-0.079470046 0.069915526 -0.01600837 4278190080
-0.077472813 0.070029519 -0.015947036 4278190080
-0.075577147 0.069916263 -0.01598618 4278190080
-0.072805554 0.070145905 -0.016010486 4278190080
-0.07148347 0.070192777 -0.016020684 4278190080
-0.069303453 0.070108443 -0.016014166 4278190080
-0.067013592 0.069727495 -0.0160228 4278190080
-0.065347455 0.070312485 -0.015935658 4278190080
-0.061278727 0.070227154 -0.016017405 4278190080
0.061530087 0.069201104 -0.015951602 4278190080
0.062789239 0.070800088 -0.015933542 4278190080
0.064598754 0.069942541 -0.01598206 4278190080
0.066583373 0.069956459 -0.016020589 4278190080
0.068874411 0.070106097 -0.016021935 4278190080
0.071047112 0.070190869 -0.016019586 4278190080
0.072370343 0.070146374 -0.016009239 4278190080
0.075143956 0.06991607 -0.015984518 4278190080
0.077043414 0.070029899 -0.015943566 4278190080
0.079035759 0.069916658 -0.016009275 4278190080
0.080729686 0.069864772 -0.016044876 4278190080
0.083127119 0.070041291 -0.015937585 4278190080
0.08493533 0.069912694 -0.015972935 4278190080
0.086482972 0.070182115 -0.016010238 4278190080
0.088479266 0.070311949 -0.015990127 4278190080
0.090874173 0.070101134 -0.016025165 4278190080
0.092763186 0.069831051 -0.016038576 4278190080
0.094422616 0.069358744 -0.015988199 4278190080
0.096972853 0.069953375 -0.015973343 4278190080
0.098801382 0.070014961 -0.016002445 4278190080
0.10078923 0.068977229 -0.016121952 4278190080
0.10254624 0.070030794 -0.016050382 4278190080
0.10675929 0.070342295 -0.017321287 4278190080
0.10864977 0.070468441 -0.017147435 4278190080
0.11086264 0.069857895 -0.016750064 4278190080
0.11206967 0.069447272 -0.016843954 4278190080
-0.11296408 0.069590494 -0.014994173 4278190080
-0.11081015 0.070526592 -0.015415698 4278190080
-0.10908238 0.070768096 -0.015597671 4278190080
-0.10772543 0.069667213 -0.014593392 4278190080
-0.1049315 0.069781877 -0.015847338 4278190080
-0.10349678 0.069953039 -0.014883279 4278190080
-0.10166466 0.069997676 -0.014571412 4278190080
-0.097190045 0.070331372 -0.015861211 4278190080
-0.09123598 0.069354095 -0.015882997 4278190080
-0.085548833 0.069367088 -0.015879719 4278190080
-0.079704262 0.069841661 -0.01587875 4278190080
-0.074172243 0.069375791 -0.015877513 4278190080
-0.06839136 0.069885828 -0.015819898 4278190080
-0.066648386 0.070106663 -0.015681623 4278190080
-0.064733289 0.069871642 -0.015712095 4278190080
-0.062907115 0.070294246 -0.015549217 4278190080
-0.061456002 0.069775879 -0.015790751 4278190080
-0.059616003 0.069917612 -0.015644128 4278190080
-0.057326965 0.069905177 -0.015461164 4278190080
-0.055354204 0.069891989 -0.015372102 4278190080
-0.053161763 0.070093021 -0.015394332 4278190080
-0.051054507 0.06995558 -0.015118727 4278190080
-0.049229652 0.070116252 -0.015219349 4278190080
-0.04711201 0.070022248 -0.0151642 4278190080
-0.046001386 0.069835581 -0.014825373 4278190080
-0.043308299 0.070149362 -0.015058661 4278190080
-0.04113986 0.070099697 -0.014944931 4278190080
-0.039277095 0.069795862 -0.014919429 4278190080
-0.037103262 0.06991034 -0.0149344 4278190080
-0.035120171 0.069631912 -0.014949707 4278190080
-0.033163708 0.070272386 -0.014906136 4278190080
-0.031380028 0.070118129 -0.01497929 4278190080
-0.029216914 0.070137993 -0.014937087 4278190080
-0.026995484 0.06963823 -0.014925896 4278190080
-0.025030842 0.070253924 -0.014858583 4278190080
-0.023450494 0.069806509 -0.014928941 4278190080
-0.021161931 0.070155263 -0.014911287 4278190080
-0.01923525 0.069839939 -0.014946503 4278190080
-0.01715178 0.069803253 -0.014982048 4278190080
-0.015020211 0.070224494 -0.014861599 4278190080
-0.013204203 0.069530785 -0.014878834 4278190080
-0.011075281 0.070045032 -0.014817028 4278190080
-0.0095241228 0.070225164 -0.01497888 4278190080
-0.0071522612 0.070179783 -0.014835792 4278190080
-0.0051741768 0.070169739 -0.015046512 4278190080
-0.0032267859 0.070076801 -0.014910095 4278190080
-0.00096170622 0.069840834 -0.014967755 4278190080
0.00093855872 0.069627441 -0.01484457 4278190080
0.0029706191 0.070107341 -0.014982312 4278190080
0.0049267779 0.070203416 -0.01485741 4278190080
0.0069571566 0.070200577 -0.015071671 4278190080
0.0090703825 0.070127286 -0.014973173 4278190080
0.010623856 0.070161082 -0.015036421 4278190080
0.012998557 0.06981767 -0.014932166 4278190080
0.014876564 0.070169479 -0.01503478 4278190080
0.017035531 0.06975133 -0.014811276 4278190080
0.019037323 0.06968005 -0.014903972 4278190080
0.020527024 0.070150472 -0.015067903 4278190080
0.022846151 0.069859587 -0.014940976 4278190080
0.024618015 0.070232712 -0.015017065 4278190080
0.026875485 0.069703005 -0.014951139 4278190080
0.028622895 0.070176058 -0.015027805 4278190080
0.030922811 0.070271678 -0.015003972 4278190080
0.032867596 0.070142776 -0.014967031 4278190080
0.03450866 0.06964539 -0.015075007 4278190080
0.036617957 0.069850579 -0.014947397 4278190080
0.03888059 0.069998458 -0.0149668 4278190080
0.040836148 0.070172809 -0.015007098 4278190080
0.042732779 0.070136212 -0.015074957 4278190080
0.044854436 0.069928519 -0.015166729 4278190080
0.046718184 0.069773957 -0.015122199 4278190080
0.048790872 0.069768906 -0.015207419 4278190080
0.050766483 0.069959886 -0.015360871 4278190080
0.052965224 0.070010222 -0.015321918 4278190080
0.055088803 0.070364006 -0.015460897 4278190080
0.056810185 0.070009641 -0.015529244 4278190080
0.058816392 0.070082538 -0.01571032 4278190080
0.060425445 0.070008986 -0.015579947 4278190080
0.062594816 0.07007885 -0.015685437 4278190080
0.065243818 0.070626937 -0.015852896 4278190080
0.065932073 0.069861449 -0.015838949 4278190080
0.067944892 0.069699563 -0.015867537 4278190080
0.073736086 0.069354095 -0.015882997 4278190080
0.079272933 0.069844134 -0.015877021 4278190080
0.096750714 0.070323445 -0.015863685 4278190080
0.099645905 0.069368817 -0.01448509 4278190080
0.10109835 0.070066892 -0.015162381 4278190080
0.10290072 0.069788031 -0.014693781 4278190080
0.10436568 0.069948658 -0.014974007 4278190080
0.10693633 0.069609448 -0.014559393 4278190080
0.10927086 0.070343502 -0.014540676 4278190080
0.11073975 0.070590064 -0.014828195 4278190080
0.11200044 0.070499294 -0.015238017 4278190080
-0.11245826 0.070780881 -0.013497323 4278190080
-0.11095913 0.069658548 -0.013484661 4278190080
-0.10905898 0.069634855 -0.012531267 4278190080
-0.10805765 0.069198765 -0.012546896 4278190080
0.10949478 0.069950595 -0.013106341 4278190080
0.11042438 0.069709659 -0.012836925 4278190080
0.11218604 0.069543302 -0.013235181 4278190080
-0.1108736 0.069412239 -0.011631458 4278190080
-0.10935201 0.070214376 -0.01118563 4278190080
0.10675308 0.070341446 -0.010330136 4278190080
0.109143 0.070119664 -0.011359804 4278190080
0.11061447 0.07076171 -0.010701865 4278190080
-0.1110682 0.069793127 -0.009378572 4278190080
-0.10935619 0.069956616 -0.0087122899 4278190080
0.10734174 0.069199719 -0.0082784882 4278190080
0.10897733 0.070201389 -0.0088018347 4278190080
0.11042216 0.069867089 -0.008953114 4278190080
-0.1124853 0.069267489 -0.006373472 4278190080
-0.11104555 0.069987454 -0.0070218737 4278190080
-0.10892715 0.07007958 -0.007274379 4278190080
-0.10806438 0.069331624 -0.0073842998 4278190080
0.10926054 0.070379369 -0.0065478305 4278190080
0.11049289 0.070672438 -0.006541383 4278190080
-0.11265966 0.070784904 -0.0039770897 4278190080
-0.11081737 0.069631577 -0.0046099555 4278190080
-0.10916709 0.069501862 -0.0045436597 4278190080
-0.10735413 0.070897259 -0.0053195055 4278190080
0.10671283 0.070591666 -0.0051187845 4278190080
0.10889415 0.070254996 -0.004296625 4278190080
0.11041979 0.06998539 -0.0045885812 4278190080
-0.11163648 0.07043872 -0.0037047265 4278190080
-0.10876323 0.069787815 -0.0028342777 4278190080
-0.10807105 0.069463409 -0.002267271 4278190080
0.10872102 0.070214771 -0.0022699593 4278190080
0.11065509 0.070413835 -0.002715094 4278190080
-0.11249615 0.070633627 -0.00063630188 4278190080
-0.11080342 0.069807179 0.00011647619 4278190080
-0.10926221 0.069819927 -0.00060765387 4278190080
0.10679194 0.069841661 -0.00013111094 4278190080
0.10889415 0.070254996 0.00011647616 4278190080
0.11043038 0.070285343 -0.0010604501 4278190080
-0.11168744 0.070023499 0.00092205399 4278190080
-0.1087828 0.06993039 0.0013369544 4278190080
0.10701726 0.069663286 0.001206984 4278190080
0.10961113 0.07047157 0.0016564428 4278190080
0.11086021 0.070540853 0.0015011987 4278190080
-0.11274283 0.069504835 0.0036176143 4278190080
-0.11142989 0.070721425 0.0037626324 4278190080
-0.10892796 0.069679201 0.002904559 4278190080
-0.10807767 0.069593884 0.0028046963 4278190080
0.10887863 0.070145726 0.0026058701 4278190080
0.1107432 0.070510536 0.0027859481 4278190080
-0.11144139 0.069612741 0.0048293136 4278190080
-0.10912812 0.069482788 0.004763498 4278190080
0.10682104 0.070277706 0.0051561925 4278190080
0.10889415 0.070254996 0.0045295777 4278190080
0.11045898 0.070385277 0.0051371162 4278190080
-0.11267412 0.06953261 0.0062828506 4278190080
-0.11157239 0.069720067 0.006888737 4278190080
-0.1090368 0.070087589 0.007345486 4278190080
-0.10808577 0.069724835 0.0078335693 4278190080
0.1088888 0.070468269 0.0071822819 4278190080
0.11054373 0.070688896 0.0067111221 4278190080
-0.11100913 0.069845237 0.0093903188 4278190080
-0.10929275 0.069823869 0.0090637906 4278190080
0.10913234 0.070192605 0.0090069761 4278190080
0.11050872 0.07004077 0.0090753119 4278190080
-0.11100122 0.069311388 0.011816203 4278190080
-0.10912863 0.070040941 0.011170397 4278190080
-0.10726205 0.070641197 0.010367392 4278190080
0.10711303 0.070474632 0.01091798 4278190080
0.10910176 0.070152491 0.011546824 4278190080
0.11066005 0.070652574 0.011030791 4278190080
-0.10922559 0.069621161 0.012866599 4278190080
-0.108012 0.069400556 0.013372595 4278190080
0.10939837 0.069689415 0.013372484 4278190080
0.1100368 0.069906436 0.012689609 4278190080
-0.11044639 0.070223205 0.014950861 4278190080
-0.10863148 0.070311621 0.014630645 4278190080
-0.10779442 0.06962619 0.015334851 4278190080
0.1045892 0.069337852 0.015728502 4278190080
0.10739814 0.069843583 0.015263884 4278190080
0.10881138 0.069823079 0.01533974 4278190080
0.11048816 0.070040353 0.014643176 4278190080
-0.10762698 0.07051637 0.01644904 4278190080
-0.10500727 0.070136793 0.01669828 4278190080
-0.10330843 0.069998212 0.016744025 4278190080
-0.10113925 0.069619574 0.017946117 4278190080
-0.098810516 0.069903657 0.017998608 4278190080
-0.096913271 0.070009299 0.017985877 4278190080
-0.09475676 0.070052721 0.018088667 4278190080
-0.093109056 0.069921866 0.017981132 4278190080
-0.091450214 0.070193902 0.017966963 4278190080
-0.088741153 0.070190221 0.018014416 4278190080
-0.087032109 0.070152767 0.017974818 4278190080
-0.084995054 0.06986846 0.017990069 4278190080
-0.08328969 0.069765225 0.017990045 4278190080
-0.081169203 0.069814563 0.017968867 4278190080
-0.079535976 0.069822162 0.017967917 4278190080
-0.076453738 0.070363447 0.017912177 4278190080
-0.075063765 0.069353424 0.018007252 4278190080
-0.073567472 0.070116796 0.018006837 4278190080
-0.071491227 0.070022248 0.017958082 4278190080
-0.0696178 0.069839418 0.01797214 4278190080
-0.066997506 0.069774449 0.01787344 4278190080
-0.065336272 0.070090234 0.017854437 4278190080
-0.062706031 0.069641203 0.01772641 4278190080
-0.061187964 0.069742411 0.017756833 4278190080
-0.058875844 0.070020825 0.017543573 4278190080
-0.057294033 0.069682233 0.017503304 4278190080
-0.055351797 0.070175104 0.017393164 4278190080
-0.053385872 0.070059456 0.017267564 4278190080
-0.05115781 0.070190325 0.017306309 4278190080
-0.049446061 0.069805861 0.017241154 4278190080
-0.047152903 0.06964922 0.017016007 4278190080
-0.045630004 0.070749156 0.017171724 4278190080
-0.042891223 0.0700996 0.016926793 4278190080
-0.041378334 0.070068859 0.016961789 4278190080
-0.039396171 0.069600932 0.016809372 4278190080
-0.037205905 0.069915101 0.016898328 4278190080
-0.034925815 0.069357671 0.016992854 4278190080
-0.033341009 0.070162654 0.016847182 4278190080
-0.031224808 0.069875263 0.016847653 4278190080
-0.02892163 0.070244767 0.016970027 4278190080
-0.027246902 0.069933131 0.016826045 4278190080
-0.024405088 0.069556035 0.01712787 4278190080
-0.023268025 0.069629863 0.016903905 4278190080
-0.020912625 0.070217468 0.016831556 4278190080
-0.019030599 0.07038065 0.016990758 4278190080
-0.01688 0.069982074 0.016813621 4278190080
